0.996094 0.988281 0.996094 1.000000 0.992188 0.964844 0.968750 0.964844 0.968750 0.960938 0.957031 0.945313 0.953125 0.957031 0.945313 0.976563 0.941406 0.945313 0.957031 0.960938 0.953125 0.953125 0.968750 0.972656 0.968750 0.984375 0.988281 0.984375 0.980469 0.984375 0.984375 0.984375 0.980469 0.980469 0.976563 0.984375 0.984375 0.996094 0.976563 0.984375 0.976563 0.976563 0.980469 0.984375 0.984375 0.972656 0.968750 0.988281 0.968750 0.980469 0.996094 0.992188 0.984375 0.988281 0.988281 0.988281 0.980469 0.988281 0.984375 0.976563 0.984375 0.972656 0.984375 0.996094 0.996094 1.000000 1.000000 0.996094 0.968750 0.980469 0.976563 0.968750 0.968750 0.972656 0.984375 0.980469 0.980469 0.984375 0.984375 0.984375 0.972656 0.972656 0.988281 0.972656 0.964844 0.992188 0.988281 0.976563 0.996094 0.988281 1.000000 0.992188 0.992188 0.976563 0.988281 0.976563 0.984375 0.988281 0.980469 0.984375 0.976563 0.941406 0.957031 0.949219 0.957031 0.957031 0.941406 0.941406 0.925781 0.941406 0.906250 0.937500 0.957031 0.929688 0.910156 0.933594 0.949219 0.949219 0.957031 0.957031 0.953125 0.988281 0.976563 0.953125 0.925781 0.921875 0.871094 0.890625 0.890625 0.832031 0.871094 0.898438 0.828125 0.757813 0.695313 0.636719 0.699219 0.769531 0.761719 0.843750 0.953125 0.953125 0.937500 0.855469 0.894531 0.945313 0.945313 0.976563 0.960938 0.867188 0.894531 0.859375 0.839844 0.824219 0.824219 0.808594 0.804688 0.894531 0.871094 0.816406 0.882813 0.882813 0.890625 0.835938 0.847656 0.832031 0.906250 0.968750 0.906250 0.832031 0.800781 0.792969 0.832031 0.894531 0.867188 0.878906 0.898438 0.914063 0.925781 0.976563 0.992188 0.972656 0.980469 0.984375 0.984375 0.992188 0.968750 0.976563 0.976563 0.968750 0.964844 0.980469 0.972656 0.929688 0.945313 0.949219 0.949219 0.929688 0.941406 0.953125 0.925781 0.910156 0.925781 0.925781 0.898438 0.894531 0.933594 0.968750 0.988281 0.964844 0.980469 0.949219 0.996094 0.992188 0.976563 0.921875 0.933594 0.964844 0.941406 0.972656 0.976563 0.972656 1.000000 0.964844 0.890625 0.917969 0.906250 0.917969 0.871094 0.871094 0.855469 0.847656 0.839844 0.867188 0.894531 0.882813 0.882813 0.828125 0.867188 0.789063 0.812500 0.863281 0.847656 0.835938 0.863281 0.867188 0.906250 0.890625 0.906250 0.906250 0.937500 0.953125 0.957031 0.964844 0.972656 0.949219 0.953125 0.968750 0.957031 0.941406 0.972656 0.957031 0.964844 0.949219 0.953125 0.968750 0.976563 0.976563 0.976563 0.964844 0.980469 0.992188 0.984375 0.992188 0.984375 0.972656 0.996094 1.000000 1.000000 0.988281 0.984375 0.988281 0.976563 0.957031 0.976563 0.984375 0.976563 0.984375 0.960938 0.945313 0.941406 0.933594 0.929688 0.953125 0.917969 0.937500 0.929688 0.914063 0.886719 0.925781 0.921875 0.933594 0.941406 0.949219 0.960938 0.949219 0.925781 0.953125 0.914063 0.980469 0.972656 0.996094 1.000000 0.972656 0.968750 0.976563 0.976563 0.980469 0.980469 0.996094 0.976563 0.992188 0.988281 0.996094 0.988281 0.984375 0.988281 0.968750 0.972656 0.972656 0.953125
0.988281 0.984375 0.992188 0.980469 0.996094 0.972656 0.972656 0.957031 0.937500 0.964844 0.945313 0.972656 0.972656 0.949219 0.953125 0.972656 0.949219 0.960938 0.960938 0.953125 0.972656 0.968750 0.968750 0.941406 0.953125 0.976563 0.980469 0.972656 0.980469 0.968750 0.976563 0.972656 0.988281 0.976563 0.992188 0.980469 0.988281 0.992188 0.992188 0.988281 0.988281 0.957031 0.976563 0.964844 0.992188 0.964844 0.964844 0.988281 0.964844 0.980469 0.976563 0.976563 0.976563 0.996094 1.000000 0.988281 0.984375 0.984375 0.964844 0.964844 0.984375 0.996094 0.972656 0.988281 0.988281 1.000000 0.988281 0.992188 0.980469 0.984375 0.980469 0.968750 0.972656 0.980469 0.988281 0.988281 0.984375 0.980469 0.964844 0.984375 0.976563 0.972656 0.992188 0.976563 0.980469 0.980469 0.992188 0.984375 0.992188 1.000000 0.988281 0.992188 0.988281 0.992188 0.980469 0.984375 0.960938 0.968750 0.976563 0.945313 0.968750 0.957031 0.949219 0.949219 0.941406 0.933594 0.953125 0.964844 0.945313 0.937500 0.917969 0.949219 0.941406 0.949219 0.953125 0.968750 0.937500 0.960938 0.960938 0.976563 0.984375 0.980469 0.968750 0.949219 0.921875 0.886719 0.906250 0.855469 0.902344 0.898438 0.859375 0.843750 0.835938 0.753906 0.710938 0.652344 0.652344 0.683594 0.820313 0.839844 0.933594 0.945313 0.968750 0.957031 0.960938 0.902344 0.917969 0.957031 0.960938 0.917969 0.828125 0.816406 0.796875 0.832031 0.800781 0.824219 0.851563 0.867188 0.859375 0.898438 0.882813 0.886719 0.820313 0.863281 0.824219 0.890625 0.828125 0.839844 0.878906 0.871094 0.843750 0.867188 0.882813 0.925781 0.898438 0.894531 0.906250 0.953125 0.957031 0.980469 0.996094 0.984375 0.976563 0.976563 0.972656 0.972656 0.988281 0.976563 0.957031 0.984375 0.976563 0.949219 0.945313 0.933594 0.949219 0.953125 0.914063 0.921875 0.929688 0.957031 0.937500 0.953125 0.957031 0.921875 0.933594 0.925781 0.968750 0.988281 0.984375 0.972656 0.976563 0.949219 0.968750 0.964844 0.957031 0.972656 0.953125 0.960938 0.968750 0.902344 0.960938 0.953125 0.968750 0.933594 0.914063 0.910156 0.894531 0.847656 0.855469 0.832031 0.835938 0.859375 0.855469 0.855469 0.867188 0.824219 0.820313 0.777344 0.812500 0.800781 0.820313 0.863281 0.820313 0.808594 0.867188 0.839844 0.902344 0.898438 0.890625 0.910156 0.945313 0.937500 0.937500 0.953125 0.980469 0.960938 0.972656 0.972656 0.953125 0.976563 0.964844 0.941406 0.964844 0.960938 0.925781 0.945313 0.933594 0.941406 0.964844 0.945313 0.976563 0.992188 0.984375 0.992188 0.988281 1.000000 0.984375 0.996094 1.000000 0.984375 0.976563 0.976563 0.980469 0.976563 0.976563 0.960938 0.976563 0.953125 0.953125 0.917969 0.937500 0.929688 0.957031 0.867188 0.941406 0.925781 0.914063 0.898438 0.925781 0.937500 0.929688 0.929688 0.957031 0.949219 0.960938 0.914063 0.921875 0.917969 0.945313 0.953125 0.964844 0.984375 1.000000 1.000000 0.988281 0.996094 0.980469 0.980469 0.988281 0.984375 0.964844 0.964844 0.972656 0.980469 0.960938 0.976563 0.964844 0.976563 0.968750 0.945313 0.953125
0.988281 0.980469 0.980469 0.984375 1.000000 0.992188 0.980469 0.949219 0.972656 0.976563 0.960938 0.937500 0.972656 0.976563 0.949219 0.953125 0.964844 0.964844 0.957031 0.968750 0.964844 0.957031 0.964844 0.968750 0.976563 0.953125 0.957031 0.968750 0.964844 0.976563 0.972656 0.968750 0.984375 0.984375 0.984375 0.996094 0.996094 0.996094 0.988281 0.984375 0.992188 0.996094 0.984375 0.968750 0.988281 0.992188 0.984375 0.964844 0.996094 0.984375 0.972656 0.992188 0.988281 0.988281 0.988281 0.980469 0.996094 0.988281 0.980469 0.972656 0.980469 0.976563 0.992188 0.988281 0.992188 0.988281 0.988281 0.992188 0.996094 0.984375 0.972656 0.976563 0.968750 0.980469 0.976563 0.960938 0.972656 0.964844 0.964844 0.968750 0.980469 0.984375 0.988281 0.988281 0.992188 0.988281 0.972656 0.988281 0.992188 0.988281 0.988281 0.988281 0.984375 0.980469 0.984375 0.972656 0.960938 0.972656 0.976563 0.988281 0.976563 0.964844 0.933594 0.957031 0.949219 0.917969 0.941406 0.902344 0.910156 0.933594 0.933594 0.941406 0.945313 0.945313 0.972656 0.968750 0.949219 0.937500 0.945313 0.976563 0.988281 0.941406 0.980469 0.953125 0.906250 0.890625 0.898438 0.914063 0.835938 0.878906 0.855469 0.867188 0.808594 0.804688 0.781250 0.773438 0.769531 0.746094 0.828125 0.906250 0.972656 0.949219 0.949219 0.945313 0.968750 0.960938 0.949219 0.941406 0.976563 0.941406 0.878906 0.871094 0.882813 0.851563 0.855469 0.851563 0.882813 0.929688 0.906250 0.875000 0.898438 0.914063 0.898438 0.796875 0.816406 0.847656 0.816406 0.757813 0.796875 0.835938 0.921875 0.921875 0.886719 0.878906 0.921875 0.878906 0.878906 0.933594 0.980469 1.000000 0.992188 0.960938 0.925781 0.957031 0.933594 0.953125 0.968750 0.980469 0.984375 0.964844 0.910156 0.914063 0.925781 0.914063 0.914063 0.933594 0.937500 0.906250 0.882813 0.906250 0.882813 0.925781 0.910156 0.925781 0.910156 0.933594 0.953125 0.976563 0.976563 0.976563 0.964844 0.996094 0.984375 0.968750 0.988281 0.984375 0.953125 0.957031 0.937500 0.914063 0.917969 0.957031 0.949219 0.976563 0.945313 0.929688 0.902344 0.875000 0.851563 0.906250 0.906250 0.910156 0.871094 0.839844 0.824219 0.812500 0.851563 0.843750 0.851563 0.824219 0.828125 0.757813 0.761719 0.816406 0.824219 0.800781 0.855469 0.906250 0.921875 0.937500 0.953125 0.937500 0.957031 0.941406 0.976563 0.980469 0.964844 0.968750 0.984375 0.976563 0.945313 0.949219 0.933594 0.933594 0.937500 0.941406 0.957031 0.937500 0.933594 0.949219 0.964844 0.964844 0.980469 0.972656 0.984375 0.992188 0.976563 1.000000 0.988281 0.984375 0.988281 0.968750 0.984375 0.972656 0.964844 0.976563 0.953125 0.941406 0.929688 0.957031 0.917969 0.949219 0.925781 0.929688 0.933594 0.898438 0.921875 0.933594 0.949219 0.960938 0.957031 0.964844 0.960938 0.910156 0.953125 0.941406 0.933594 0.933594 0.972656 0.984375 0.984375 1.000000 1.000000 1.000000 1.000000 0.984375 0.992188 0.984375 0.976563 0.949219 0.972656 0.957031 0.960938 0.972656 0.964844 0.980469 0.968750 0.968750 0.953125 0.984375 0.976563
0.976563 0.988281 0.992188 0.992188 1.000000 0.996094 0.984375 0.992188 0.960938 0.941406 0.964844 0.960938 0.945313 0.960938 0.980469 0.964844 0.972656 0.960938 0.968750 0.945313 0.968750 0.968750 0.953125 0.984375 0.960938 0.953125 0.968750 0.957031 0.960938 0.964844 0.964844 0.980469 0.976563 0.976563 0.972656 0.984375 0.984375 0.992188 0.984375 0.976563 0.972656 0.992188 0.988281 0.988281 0.980469 0.984375 0.996094 0.988281 0.980469 0.988281 0.976563 0.976563 0.980469 0.996094 0.992188 0.988281 0.988281 0.976563 0.984375 0.976563 0.984375 0.984375 0.992188 0.996094 0.992188 0.992188 0.996094 0.992188 0.988281 0.988281 0.984375 0.960938 0.976563 0.972656 0.988281 0.968750 0.964844 0.968750 0.957031 0.976563 0.984375 0.984375 0.976563 0.988281 0.976563 1.000000 0.980469 0.988281 0.976563 0.980469 0.992188 0.988281 0.980469 0.992188 0.964844 0.988281 0.964844 0.976563 0.980469 0.960938 0.953125 0.972656 0.941406 0.945313 0.964844 0.941406 0.929688 0.925781 0.957031 0.929688 0.945313 0.886719 0.957031 0.933594 0.949219 0.976563 0.953125 0.964844 0.988281 0.996094 0.980469 0.957031 0.933594 0.945313 0.906250 0.921875 0.902344 0.894531 0.902344 0.839844 0.886719 0.843750 0.851563 0.792969 0.734375 0.742188 0.746094 0.742188 0.777344 0.914063 0.945313 0.953125 0.976563 0.960938 0.937500 0.976563 0.957031 0.996094 0.964844 0.964844 0.941406 0.863281 0.843750 0.871094 0.910156 0.871094 0.894531 0.851563 0.871094 0.882813 0.851563 0.925781 0.847656 0.847656 0.828125 0.835938 0.851563 0.867188 0.843750 0.839844 0.878906 0.929688 0.929688 0.917969 0.910156 0.882813 0.906250 0.968750 0.933594 0.964844 0.992188 0.937500 0.941406 0.960938 0.949219 0.960938 0.976563 0.980469 0.941406 0.917969 0.917969 0.871094 0.886719 0.917969 0.925781 0.890625 0.914063 0.910156 0.941406 0.898438 0.910156 0.925781 0.914063 0.917969 0.941406 0.929688 0.910156 0.898438 0.992188 1.000000 0.980469 0.941406 0.949219 0.988281 0.972656 0.972656 0.972656 0.914063 0.917969 0.914063 0.921875 0.953125 0.968750 0.992188 0.964844 0.914063 0.863281 0.906250 0.812500 0.871094 0.875000 0.890625 0.867188 0.859375 0.835938 0.882813 0.832031 0.843750 0.816406 0.765625 0.839844 0.769531 0.773438 0.761719 0.816406 0.781250 0.859375 0.937500 0.949219 0.957031 0.953125 0.949219 0.964844 0.976563 0.972656 0.968750 0.976563 0.953125 0.972656 0.957031 0.957031 0.957031 0.914063 0.945313 0.953125 0.933594 0.945313 0.937500 0.937500 0.953125 0.972656 0.976563 0.984375 0.953125 0.976563 0.972656 0.960938 0.988281 0.968750 0.968750 0.988281 0.992188 0.996094 0.976563 0.972656 0.957031 0.914063 0.945313 0.929688 0.941406 0.937500 0.953125 0.960938 0.921875 0.914063 0.898438 0.921875 0.945313 0.929688 0.921875 0.960938 0.941406 0.949219 0.929688 0.910156 0.933594 0.925781 0.964844 0.992188 0.996094 1.000000 1.000000 1.000000 1.000000 1.000000 0.988281 0.992188 0.988281 0.964844 0.945313 0.972656 0.957031 0.957031 0.941406 0.964844 0.953125 0.992188 0.964844 0.960938 0.984375 0.984375
0.984375 0.988281 0.996094 1.000000 0.988281 0.984375 0.988281 0.988281 0.988281 0.972656 0.960938 0.957031 0.957031 0.968750 0.949219 0.968750 0.945313 0.964844 0.980469 0.953125 0.953125 0.972656 0.972656 0.953125 0.964844 0.949219 0.968750 0.968750 0.968750 0.976563 0.988281 0.972656 0.968750 0.976563 0.980469 0.980469 0.964844 0.988281 0.988281 0.968750 0.980469 0.972656 0.988281 0.984375 0.980469 0.972656 0.964844 0.996094 0.996094 0.988281 0.988281 0.988281 0.980469 0.976563 0.988281 0.984375 0.980469 0.980469 0.980469 0.976563 0.968750 0.992188 0.988281 0.988281 0.992188 1.000000 0.968750 0.988281 0.984375 0.988281 0.980469 0.988281 0.980469 0.980469 0.976563 0.964844 0.945313 0.972656 0.957031 0.968750 0.953125 0.976563 0.980469 0.960938 0.941406 0.984375 0.972656 0.992188 0.980469 0.984375 0.996094 0.992188 0.976563 0.968750 0.992188 0.960938 0.992188 0.984375 0.957031 0.980469 0.972656 0.933594 0.925781 0.941406 0.960938 0.933594 0.964844 0.925781 0.925781 0.949219 0.953125 0.957031 0.957031 0.949219 0.996094 0.960938 0.976563 0.984375 0.976563 0.976563 0.964844 0.957031 0.945313 0.929688 0.910156 0.953125 0.890625 0.902344 0.890625 0.871094 0.843750 0.824219 0.828125 0.796875 0.785156 0.761719 0.757813 0.828125 0.867188 0.921875 0.917969 0.949219 0.976563 0.925781 0.945313 0.925781 1.000000 0.988281 0.992188 0.945313 0.921875 0.878906 0.914063 0.878906 0.878906 0.878906 0.863281 0.867188 0.886719 0.902344 0.878906 0.859375 0.859375 0.839844 0.855469 0.835938 0.832031 0.835938 0.867188 0.871094 0.800781 0.871094 0.953125 0.894531 0.898438 0.808594 0.824219 0.875000 0.937500 0.976563 0.964844 0.949219 0.906250 0.960938 0.937500 0.921875 0.976563 0.945313 0.945313 0.914063 0.878906 0.867188 0.843750 0.894531 0.886719 0.882813 0.886719 0.859375 0.902344 0.894531 0.894531 0.910156 0.910156 0.921875 0.933594 0.921875 0.902344 0.960938 1.000000 0.957031 0.960938 0.957031 0.972656 0.964844 0.964844 0.976563 0.976563 0.984375 0.906250 0.953125 0.941406 0.957031 0.964844 0.980469 0.980469 0.972656 0.890625 0.867188 0.828125 0.855469 0.835938 0.785156 0.835938 0.781250 0.839844 0.765625 0.855469 0.847656 0.835938 0.777344 0.726563 0.761719 0.804688 0.808594 0.746094 0.769531 0.839844 0.894531 0.921875 0.976563 0.945313 0.960938 0.957031 0.972656 0.960938 0.968750 0.937500 0.964844 0.945313 0.949219 0.933594 0.945313 0.914063 0.933594 0.953125 0.937500 0.917969 0.929688 0.937500 0.933594 0.945313 0.980469 0.980469 0.984375 0.964844 0.953125 0.960938 0.941406 0.949219 0.976563 0.972656 0.968750 0.980469 0.957031 0.957031 0.929688 0.929688 0.949219 0.933594 0.914063 0.925781 0.906250 0.937500 0.937500 0.921875 0.929688 0.910156 0.933594 0.910156 0.957031 0.933594 0.957031 0.945313 0.957031 0.949219 0.937500 0.988281 0.996094 1.000000 0.976563 0.992188 1.000000 1.000000 0.996094 0.996094 0.996094 1.000000 0.968750 0.980469 0.972656 0.949219 0.949219 0.949219 0.937500 0.964844 0.953125 0.980469 0.945313 0.972656 0.949219 0.964844
0.972656 0.984375 0.984375 0.984375 0.968750 0.980469 0.996094 0.976563 0.976563 0.972656 0.972656 0.972656 0.953125 0.957031 0.964844 0.937500 0.941406 0.945313 0.964844 0.945313 0.960938 0.953125 0.972656 0.964844 0.980469 0.960938 0.957031 0.980469 0.972656 0.953125 0.972656 0.968750 0.988281 0.976563 0.968750 0.976563 0.976563 0.984375 0.976563 0.984375 0.972656 0.953125 0.984375 0.992188 0.992188 0.992188 0.984375 0.980469 0.984375 0.992188 0.984375 0.984375 0.980469 0.992188 0.957031 0.972656 0.972656 0.968750 0.968750 0.964844 0.976563 0.992188 0.976563 0.960938 0.988281 0.964844 0.968750 0.992188 0.960938 0.976563 0.980469 0.984375 0.968750 0.980469 0.968750 0.988281 0.957031 0.984375 0.992188 0.988281 0.980469 0.972656 0.964844 0.972656 0.972656 0.976563 0.992188 0.976563 0.980469 0.992188 0.972656 0.988281 0.980469 0.988281 0.976563 0.988281 0.980469 0.976563 0.984375 0.972656 0.976563 0.980469 0.984375 0.957031 0.933594 0.957031 0.945313 0.964844 0.949219 0.941406 0.976563 0.984375 0.992188 0.984375 1.000000 0.980469 0.968750 0.976563 0.980469 0.988281 0.929688 0.914063 0.917969 0.917969 0.902344 0.890625 0.929688 0.886719 0.859375 0.839844 0.871094 0.816406 0.750000 0.796875 0.730469 0.769531 0.804688 0.859375 0.890625 0.898438 0.910156 0.925781 0.921875 0.902344 0.929688 0.929688 0.941406 0.992188 0.976563 0.964844 0.937500 0.902344 0.902344 0.878906 0.906250 0.867188 0.910156 0.855469 0.878906 0.867188 0.910156 0.925781 0.847656 0.847656 0.812500 0.828125 0.824219 0.804688 0.800781 0.765625 0.800781 0.757813 0.847656 0.878906 0.886719 0.875000 0.898438 0.906250 0.925781 0.945313 0.917969 0.933594 0.929688 0.917969 0.933594 0.941406 0.984375 0.933594 0.917969 0.875000 0.882813 0.890625 0.828125 0.859375 0.890625 0.910156 0.882813 0.882813 0.898438 0.878906 0.871094 0.863281 0.886719 0.867188 0.886719 0.953125 0.968750 0.996094 0.996094 0.980469 0.972656 0.929688 0.949219 0.972656 0.992188 0.945313 0.957031 0.964844 0.960938 1.000000 0.984375 0.964844 0.996094 0.980469 1.000000 0.921875 0.863281 0.898438 0.847656 0.855469 0.832031 0.812500 0.808594 0.800781 0.792969 0.816406 0.812500 0.843750 0.820313 0.769531 0.796875 0.796875 0.750000 0.714844 0.742188 0.765625 0.808594 0.890625 0.953125 0.929688 0.914063 0.945313 0.972656 0.968750 0.972656 0.929688 0.949219 0.925781 0.937500 0.917969 0.937500 0.937500 0.917969 0.914063 0.945313 0.894531 0.925781 0.929688 0.933594 0.960938 0.972656 0.960938 0.984375 0.980469 0.941406 0.957031 0.937500 0.976563 0.945313 0.960938 0.988281 0.968750 0.972656 0.953125 0.968750 0.953125 0.953125 0.929688 0.914063 0.929688 0.945313 0.925781 0.906250 0.906250 0.937500 0.898438 0.929688 0.957031 0.921875 0.921875 0.941406 0.937500 0.945313 0.914063 0.960938 0.968750 0.968750 0.988281 0.988281 1.000000 0.992188 0.996094 0.996094 0.996094 1.000000 0.996094 0.992188 0.972656 0.964844 0.929688 0.968750 0.960938 0.972656 0.941406 0.964844 0.972656 0.976563 0.976563 0.941406 0.957031 0.949219
0.988281 1.000000 0.996094 0.972656 0.976563 0.980469 0.964844 0.972656 0.984375 0.980469 0.984375 0.972656 0.945313 0.953125 0.933594 0.957031 0.964844 0.968750 0.949219 0.933594 0.960938 0.957031 0.953125 0.953125 0.949219 0.964844 0.945313 0.964844 0.964844 0.968750 0.968750 0.980469 0.976563 0.964844 0.964844 0.980469 0.968750 0.957031 0.980469 0.968750 0.972656 0.984375 0.976563 0.976563 0.980469 0.984375 0.992188 0.984375 0.996094 0.996094 0.992188 0.992188 0.984375 0.960938 0.949219 0.953125 0.972656 0.953125 0.937500 0.957031 0.941406 0.972656 0.992188 0.996094 0.976563 0.980469 0.976563 0.964844 0.976563 0.980469 0.984375 0.972656 0.980469 0.984375 0.984375 0.988281 0.980469 0.964844 0.976563 0.988281 0.988281 0.988281 0.972656 0.988281 0.972656 0.988281 0.980469 0.992188 0.984375 0.996094 0.960938 0.992188 1.000000 0.980469 0.992188 0.988281 0.980469 0.988281 0.953125 0.972656 0.968750 0.968750 0.960938 0.941406 0.945313 0.953125 0.964844 0.960938 0.972656 0.980469 0.996094 0.968750 0.949219 0.968750 0.984375 0.984375 0.992188 0.988281 0.964844 0.949219 0.953125 0.914063 0.886719 0.886719 0.847656 0.867188 0.898438 0.847656 0.828125 0.828125 0.839844 0.847656 0.746094 0.742188 0.730469 0.816406 0.816406 0.867188 0.871094 0.917969 0.875000 0.914063 0.902344 0.929688 0.906250 0.972656 0.988281 1.000000 1.000000 0.984375 0.945313 0.925781 0.878906 0.902344 0.851563 0.890625 0.898438 0.902344 0.894531 0.906250 0.910156 0.890625 0.878906 0.871094 0.855469 0.890625 0.808594 0.773438 0.765625 0.765625 0.730469 0.757813 0.757813 0.753906 0.843750 0.851563 0.824219 0.851563 0.949219 0.882813 0.921875 0.882813 0.945313 0.941406 0.933594 0.945313 0.953125 0.976563 0.921875 0.890625 0.828125 0.859375 0.867188 0.855469 0.882813 0.890625 0.871094 0.894531 0.867188 0.847656 0.847656 0.878906 0.851563 0.906250 0.921875 0.964844 0.968750 0.988281 1.000000 0.992188 0.980469 0.933594 0.914063 0.933594 0.953125 0.953125 0.957031 0.992188 0.988281 0.984375 0.964844 0.925781 0.960938 0.957031 0.953125 0.976563 0.968750 0.878906 0.882813 0.878906 0.878906 0.867188 0.804688 0.843750 0.847656 0.824219 0.792969 0.832031 0.875000 0.859375 0.847656 0.796875 0.835938 0.777344 0.812500 0.789063 0.863281 0.910156 0.937500 0.937500 0.933594 0.953125 0.945313 0.980469 0.957031 0.968750 0.937500 0.941406 0.937500 0.937500 0.914063 0.933594 0.941406 0.957031 0.953125 0.921875 0.937500 0.937500 0.941406 0.980469 0.972656 0.968750 0.980469 0.972656 0.968750 0.941406 0.937500 0.960938 0.949219 0.968750 0.972656 0.964844 0.953125 0.953125 0.953125 0.949219 0.925781 0.945313 0.921875 0.953125 0.917969 0.921875 0.902344 0.929688 0.906250 0.929688 0.933594 0.937500 0.921875 0.921875 0.925781 0.957031 0.925781 0.957031 0.968750 0.980469 0.972656 0.984375 0.980469 0.980469 0.976563 0.992188 0.996094 0.984375 0.996094 0.972656 0.976563 0.957031 0.925781 0.921875 0.968750 0.953125 0.964844 0.972656 0.968750 0.976563 0.964844 0.953125 0.929688 0.910156 0.917969
1.000000 0.996094 0.988281 0.992188 0.960938 0.992188 0.980469 0.980469 0.980469 0.984375 0.980469 0.992188 0.949219 0.945313 0.960938 0.937500 0.964844 0.953125 0.957031 0.964844 0.949219 0.945313 0.953125 0.964844 0.972656 0.957031 0.960938 0.960938 0.972656 0.964844 0.964844 0.953125 0.964844 0.968750 0.937500 0.964844 0.980469 0.960938 0.960938 0.960938 0.968750 0.953125 0.972656 0.976563 0.960938 0.988281 0.988281 0.992188 0.988281 1.000000 1.000000 0.976563 0.984375 0.972656 0.964844 0.949219 0.941406 0.917969 0.960938 0.953125 0.957031 0.960938 0.988281 0.976563 0.980469 0.988281 0.972656 0.964844 0.972656 0.972656 0.984375 0.992188 1.000000 0.988281 1.000000 0.988281 0.992188 0.980469 0.984375 0.988281 0.980469 0.980469 0.988281 0.984375 0.980469 0.976563 0.988281 0.992188 0.992188 0.996094 0.984375 0.976563 0.984375 0.988281 0.988281 0.988281 0.976563 0.984375 0.972656 0.972656 0.976563 0.968750 0.960938 0.976563 0.937500 0.960938 0.957031 0.980469 0.980469 0.992188 0.988281 0.968750 0.964844 0.957031 0.976563 0.972656 0.992188 0.980469 0.972656 0.964844 0.925781 0.917969 0.906250 0.851563 0.835938 0.839844 0.890625 0.851563 0.808594 0.785156 0.863281 0.851563 0.851563 0.804688 0.828125 0.820313 0.859375 0.878906 0.898438 0.898438 0.875000 0.851563 0.882813 0.894531 0.960938 0.984375 0.984375 1.000000 1.000000 0.976563 0.949219 0.937500 0.921875 0.925781 0.902344 0.898438 0.875000 0.882813 0.906250 0.914063 0.882813 0.925781 0.886719 0.906250 0.882813 0.812500 0.832031 0.800781 0.812500 0.738281 0.683594 0.746094 0.718750 0.738281 0.726563 0.824219 0.839844 0.898438 0.851563 0.882813 0.882813 0.917969 0.921875 0.929688 0.914063 0.941406 0.941406 0.980469 0.921875 0.867188 0.875000 0.847656 0.835938 0.875000 0.855469 0.839844 0.878906 0.898438 0.863281 0.863281 0.832031 0.871094 0.875000 0.871094 0.910156 0.945313 0.984375 0.988281 1.000000 1.000000 0.992188 0.996094 0.988281 0.949219 0.929688 0.937500 0.937500 0.960938 0.968750 0.964844 0.976563 0.945313 0.960938 0.953125 0.945313 0.988281 0.957031 0.929688 0.906250 0.894531 0.855469 0.855469 0.824219 0.851563 0.851563 0.871094 0.816406 0.792969 0.910156 0.894531 0.921875 0.910156 0.933594 0.859375 0.835938 0.917969 0.941406 0.917969 0.953125 0.960938 0.945313 0.914063 0.902344 0.964844 0.953125 0.972656 0.953125 0.925781 0.953125 0.937500 0.898438 0.925781 0.968750 0.921875 0.945313 0.929688 0.937500 0.953125 0.960938 0.968750 0.972656 0.949219 0.949219 0.945313 0.949219 0.960938 0.917969 0.933594 0.945313 0.957031 0.949219 0.968750 0.968750 0.937500 0.953125 0.949219 0.949219 0.949219 0.937500 0.917969 0.921875 0.933594 0.906250 0.863281 0.894531 0.878906 0.953125 0.945313 0.941406 0.914063 0.914063 0.957031 0.957031 0.972656 0.980469 0.988281 0.976563 0.976563 0.976563 0.984375 0.996094 0.980469 0.980469 0.996094 1.000000 0.984375 0.972656 0.988281 0.964844 0.953125 0.960938 0.933594 0.964844 0.957031 0.964844 0.968750 0.957031 0.949219 0.933594 0.941406 0.933594
0.988281 1.000000 0.980469 0.992188 0.984375 0.984375 0.960938 0.964844 0.976563 0.988281 0.972656 0.960938 0.976563 0.953125 0.968750 0.957031 0.968750 0.976563 0.949219 0.957031 0.960938 0.945313 0.957031 0.968750 0.949219 0.972656 0.976563 0.972656 0.957031 0.972656 0.960938 0.976563 0.949219 0.980469 0.964844 0.964844 0.984375 0.972656 0.968750 0.980469 0.957031 0.953125 0.984375 0.960938 0.937500 0.964844 0.988281 1.000000 0.996094 0.960938 0.984375 0.988281 0.988281 0.968750 0.972656 0.937500 0.968750 0.968750 0.957031 0.953125 0.953125 0.964844 0.988281 0.980469 0.976563 0.976563 0.976563 0.972656 0.960938 0.960938 0.972656 0.972656 1.000000 0.992188 1.000000 1.000000 0.996094 0.992188 0.984375 0.988281 0.992188 0.980469 0.980469 0.976563 0.988281 0.988281 0.980469 0.988281 0.976563 0.988281 0.988281 0.976563 0.957031 0.976563 0.972656 0.976563 0.976563 0.988281 0.980469 0.972656 0.984375 0.964844 0.964844 0.957031 0.980469 0.980469 0.972656 0.992188 0.988281 0.980469 0.980469 0.980469 0.976563 0.988281 0.996094 0.980469 0.957031 0.964844 0.957031 0.957031 0.925781 0.890625 0.886719 0.863281 0.878906 0.886719 0.875000 0.859375 0.867188 0.820313 0.832031 0.847656 0.812500 0.835938 0.867188 0.863281 0.890625 0.890625 0.882813 0.816406 0.867188 0.855469 0.898438 0.953125 0.941406 0.957031 1.000000 1.000000 1.000000 0.964844 0.933594 0.933594 0.933594 0.910156 0.925781 0.906250 0.914063 0.902344 0.921875 0.890625 0.894531 0.863281 0.875000 0.875000 0.847656 0.812500 0.812500 0.878906 0.781250 0.691406 0.695313 0.687500 0.726563 0.757813 0.750000 0.738281 0.730469 0.867188 0.871094 0.902344 0.910156 0.859375 0.917969 0.917969 0.902344 0.902344 0.929688 0.890625 0.957031 0.871094 0.882813 0.839844 0.832031 0.839844 0.785156 0.789063 0.839844 0.894531 0.917969 0.910156 0.859375 0.878906 0.855469 0.847656 0.824219 0.871094 0.910156 0.972656 1.000000 1.000000 1.000000 0.988281 0.929688 0.882813 0.910156 0.902344 0.949219 0.960938 0.917969 0.925781 0.960938 0.929688 0.937500 0.914063 0.921875 0.949219 0.972656 0.968750 0.898438 0.820313 0.820313 0.843750 0.871094 0.867188 0.851563 0.898438 0.847656 0.882813 0.957031 0.917969 0.921875 0.933594 0.980469 0.921875 0.925781 0.941406 0.921875 0.953125 0.925781 0.929688 0.953125 0.929688 0.945313 0.949219 0.898438 0.976563 0.953125 0.925781 0.890625 0.906250 0.925781 0.925781 0.921875 0.945313 0.925781 0.902344 0.937500 0.968750 0.957031 0.937500 0.960938 0.957031 0.945313 0.953125 0.921875 0.953125 0.917969 0.945313 0.945313 0.925781 0.945313 0.937500 0.957031 0.949219 0.953125 0.929688 0.917969 0.929688 0.941406 0.921875 0.929688 0.929688 0.933594 0.921875 0.925781 0.929688 0.917969 0.933594 0.945313 0.945313 0.953125 0.933594 0.980469 0.972656 0.980469 0.996094 0.968750 0.980469 0.980469 0.976563 0.980469 0.980469 0.996094 1.000000 0.988281 0.968750 0.968750 0.972656 0.968750 0.960938 0.972656 0.914063 0.957031 0.953125 0.964844 0.960938 0.925781 0.945313 0.937500 0.933594 0.957031
0.988281 0.988281 0.984375 0.972656 0.992188 0.976563 0.976563 0.976563 0.976563 0.996094 0.992188 0.972656 0.972656 0.964844 0.960938 0.968750 0.972656 0.968750 0.972656 0.964844 0.968750 0.953125 0.980469 0.972656 0.988281 0.960938 0.945313 0.957031 0.980469 0.960938 0.984375 0.980469 0.968750 0.976563 0.964844 0.945313 0.941406 0.960938 0.968750 0.976563 0.984375 0.980469 0.937500 0.972656 0.949219 0.964844 0.960938 0.996094 1.000000 0.984375 0.988281 0.964844 0.972656 0.964844 0.976563 0.953125 0.960938 0.976563 0.957031 0.957031 0.957031 0.976563 0.976563 0.988281 0.972656 0.972656 0.941406 0.960938 0.960938 0.953125 0.960938 0.984375 1.000000 1.000000 0.992188 1.000000 1.000000 0.984375 0.992188 0.992188 0.980469 0.984375 0.984375 0.980469 0.976563 0.988281 0.996094 1.000000 0.988281 0.988281 0.988281 0.968750 0.980469 0.988281 0.992188 0.957031 0.949219 0.941406 0.949219 0.964844 0.980469 0.968750 0.972656 0.960938 0.960938 0.941406 0.949219 0.992188 0.980469 0.945313 0.976563 0.992188 1.000000 0.988281 0.972656 0.960938 0.917969 0.949219 0.945313 0.910156 0.875000 0.867188 0.882813 0.820313 0.882813 0.855469 0.824219 0.882813 0.871094 0.851563 0.828125 0.789063 0.824219 0.843750 0.898438 0.894531 0.902344 0.929688 0.917969 0.886719 0.875000 0.855469 0.894531 0.941406 0.980469 0.968750 1.000000 1.000000 0.992188 0.980469 0.960938 0.980469 0.957031 0.937500 0.964844 0.937500 0.937500 0.960938 0.953125 0.925781 0.894531 0.871094 0.890625 0.906250 0.839844 0.816406 0.820313 0.804688 0.742188 0.726563 0.648438 0.679688 0.683594 0.691406 0.753906 0.671875 0.722656 0.750000 0.847656 0.906250 0.902344 0.902344 0.898438 0.914063 0.894531 0.890625 0.878906 0.921875 0.910156 0.843750 0.824219 0.847656 0.847656 0.812500 0.796875 0.792969 0.796875 0.828125 0.843750 0.898438 0.894531 0.882813 0.855469 0.828125 0.886719 0.851563 0.894531 0.957031 0.972656 0.996094 1.000000 0.953125 0.894531 0.894531 0.828125 0.863281 0.863281 0.921875 0.910156 0.937500 0.929688 0.914063 0.949219 0.953125 0.945313 0.953125 0.960938 0.972656 0.933594 0.808594 0.835938 0.816406 0.847656 0.882813 0.843750 0.894531 0.875000 0.917969 0.980469 0.968750 0.941406 0.957031 0.976563 0.929688 0.890625 0.937500 0.914063 0.929688 0.937500 0.937500 0.949219 0.964844 0.953125 0.976563 0.945313 0.933594 0.960938 0.960938 0.894531 0.875000 0.906250 0.910156 0.964844 0.914063 0.957031 0.929688 0.960938 0.953125 0.929688 0.941406 0.937500 0.949219 0.949219 0.964844 0.917969 0.945313 0.945313 0.925781 0.953125 0.949219 0.929688 0.949219 0.972656 0.945313 0.976563 0.937500 0.921875 0.953125 0.941406 0.941406 0.929688 0.906250 0.910156 0.921875 0.921875 0.960938 0.933594 0.957031 0.968750 0.949219 0.953125 0.953125 0.992188 0.992188 0.984375 0.992188 0.953125 0.992188 0.988281 0.980469 0.980469 0.984375 0.996094 0.992188 0.988281 0.968750 0.964844 0.964844 0.953125 0.964844 0.957031 0.964844 0.957031 0.964844 0.964844 0.960938 0.949219 0.945313 0.953125 0.921875 0.972656
0.976563 0.984375 0.988281 0.988281 0.972656 0.988281 0.980469 0.992188 0.988281 0.992188 0.996094 0.988281 0.984375 0.964844 0.980469 0.953125 0.957031 0.957031 0.976563 0.968750 0.957031 0.957031 0.972656 0.976563 0.972656 0.980469 0.960938 0.960938 0.960938 0.976563 0.968750 0.960938 0.984375 0.972656 0.972656 0.957031 0.968750 1.000000 0.949219 0.968750 0.968750 0.980469 0.960938 0.976563 0.960938 0.972656 0.984375 0.972656 0.992188 1.000000 0.976563 0.988281 0.996094 0.968750 0.964844 0.988281 0.968750 0.960938 0.960938 0.968750 0.980469 0.996094 0.988281 0.972656 0.968750 0.960938 0.937500 0.910156 0.945313 0.964844 0.957031 0.980469 0.996094 1.000000 1.000000 1.000000 1.000000 1.000000 0.976563 1.000000 0.996094 0.988281 0.988281 0.980469 0.976563 0.968750 0.988281 0.988281 1.000000 0.984375 0.972656 0.976563 0.980469 0.980469 0.984375 0.968750 0.972656 0.968750 0.960938 0.960938 0.964844 0.976563 0.953125 0.976563 0.957031 0.960938 0.996094 0.984375 0.992188 0.960938 0.980469 0.953125 0.980469 0.980469 0.964844 0.929688 0.941406 0.917969 0.906250 0.906250 0.910156 0.933594 0.906250 0.890625 0.855469 0.839844 0.890625 0.886719 0.804688 0.859375 0.863281 0.875000 0.855469 0.875000 0.906250 0.937500 0.917969 0.914063 0.917969 0.886719 0.910156 0.921875 0.941406 0.964844 0.960938 0.968750 0.992188 0.992188 0.988281 0.992188 0.988281 0.957031 0.949219 0.945313 0.980469 0.960938 0.921875 0.976563 0.941406 0.902344 0.921875 0.878906 0.855469 0.828125 0.820313 0.835938 0.824219 0.800781 0.738281 0.675781 0.660156 0.675781 0.691406 0.742188 0.808594 0.742188 0.699219 0.851563 0.871094 0.878906 0.847656 0.910156 0.878906 0.871094 0.867188 0.828125 0.937500 0.972656 0.906250 0.855469 0.824219 0.882813 0.851563 0.839844 0.839844 0.796875 0.734375 0.816406 0.843750 0.832031 0.878906 0.902344 0.863281 0.855469 0.816406 0.878906 0.964844 0.949219 0.980469 0.972656 0.964844 0.972656 0.960938 0.820313 0.832031 0.832031 0.886719 0.886719 0.863281 0.871094 0.878906 0.914063 0.941406 0.949219 0.968750 0.960938 0.988281 0.972656 0.949219 0.882813 0.835938 0.800781 0.863281 0.867188 0.820313 0.816406 0.886719 0.910156 0.953125 0.984375 0.988281 0.988281 0.972656 0.933594 0.937500 0.902344 0.863281 0.886719 0.929688 0.921875 0.941406 0.957031 0.945313 0.953125 0.945313 0.945313 0.941406 0.921875 0.933594 0.933594 0.910156 0.925781 0.941406 0.957031 0.949219 0.992188 0.980469 0.902344 0.925781 0.937500 0.941406 0.960938 0.929688 0.960938 0.933594 0.957031 0.945313 0.941406 0.925781 0.933594 0.945313 0.945313 0.945313 0.957031 0.968750 0.941406 0.945313 0.953125 0.964844 0.925781 0.949219 0.949219 0.945313 0.949219 0.937500 0.945313 0.964844 0.957031 0.960938 0.953125 0.964844 0.968750 0.984375 0.972656 0.992188 0.976563 0.996094 0.984375 0.980469 0.964844 0.976563 0.988281 0.980469 0.972656 0.996094 0.980469 0.972656 0.964844 0.957031 0.941406 0.933594 0.968750 0.949219 0.960938 0.945313 0.968750 0.964844 0.957031 0.957031 0.964844 0.960938
0.953125 0.972656 0.984375 0.984375 0.996094 0.988281 0.980469 0.976563 0.976563 0.992188 0.992188 0.988281 0.988281 0.976563 0.941406 0.988281 0.953125 0.953125 0.957031 0.968750 0.980469 0.984375 0.992188 1.000000 0.976563 0.996094 0.980469 0.976563 0.976563 0.980469 0.976563 0.972656 0.964844 0.957031 0.960938 0.980469 0.964844 0.968750 0.941406 0.964844 0.972656 0.984375 0.945313 0.968750 0.964844 0.960938 0.976563 0.960938 0.996094 0.996094 1.000000 0.988281 0.984375 0.984375 0.964844 0.968750 0.976563 0.984375 0.972656 0.984375 0.988281 0.992188 0.976563 0.960938 0.953125 0.953125 0.933594 0.933594 0.917969 0.953125 0.953125 0.988281 0.984375 1.000000 1.000000 0.996094 0.992188 0.980469 1.000000 0.988281 0.996094 0.976563 0.976563 0.968750 0.984375 0.996094 0.980469 0.992188 0.988281 0.988281 0.972656 0.988281 0.960938 0.972656 0.957031 0.960938 0.972656 0.949219 0.960938 0.972656 0.984375 0.960938 0.964844 0.976563 0.972656 0.953125 0.968750 0.964844 0.992188 0.957031 0.976563 0.968750 0.976563 0.953125 0.945313 0.925781 0.925781 0.921875 0.894531 0.882813 0.921875 0.914063 0.925781 0.910156 0.824219 0.898438 0.851563 0.832031 0.804688 0.832031 0.843750 0.906250 0.941406 0.957031 0.941406 0.929688 0.960938 0.910156 0.894531 0.917969 0.937500 0.894531 0.933594 0.937500 0.984375 0.992188 0.984375 0.992188 0.988281 0.980469 0.988281 0.984375 0.957031 0.960938 0.964844 0.960938 0.960938 0.921875 0.949219 0.898438 0.910156 0.890625 0.906250 0.882813 0.820313 0.769531 0.804688 0.746094 0.738281 0.683594 0.660156 0.625000 0.707031 0.703125 0.730469 0.765625 0.785156 0.753906 0.867188 0.910156 0.882813 0.882813 0.906250 0.878906 0.890625 0.812500 0.890625 0.933594 0.949219 0.898438 0.839844 0.890625 0.894531 0.871094 0.789063 0.730469 0.687500 0.710938 0.800781 0.855469 0.894531 0.863281 0.820313 0.855469 0.871094 0.902344 0.894531 0.960938 0.968750 0.972656 0.972656 0.953125 0.917969 0.859375 0.890625 0.871094 0.933594 0.871094 0.882813 0.824219 0.890625 0.929688 0.921875 0.953125 0.957031 0.984375 0.980469 0.968750 0.960938 0.894531 0.863281 0.828125 0.820313 0.898438 0.863281 0.886719 0.925781 0.925781 0.933594 0.964844 0.992188 1.000000 0.968750 0.925781 0.894531 0.894531 0.878906 0.890625 0.906250 0.921875 0.917969 0.890625 0.957031 0.921875 0.941406 0.898438 0.937500 0.964844 0.953125 0.972656 0.976563 0.980469 0.968750 0.980469 0.976563 0.960938 0.976563 0.953125 0.917969 0.945313 0.929688 0.925781 0.949219 0.921875 0.933594 0.968750 0.945313 0.941406 0.917969 0.937500 0.937500 0.925781 0.933594 0.945313 0.949219 0.964844 0.949219 0.968750 0.968750 0.957031 0.980469 0.984375 0.984375 0.996094 0.976563 0.972656 0.957031 0.957031 0.941406 0.968750 0.964844 0.937500 0.988281 0.980469 0.984375 0.976563 0.976563 0.968750 0.972656 0.968750 0.980469 0.984375 0.992188 0.992188 0.968750 0.980469 0.957031 0.945313 0.941406 0.945313 0.953125 0.953125 0.957031 0.968750 0.953125 0.941406 0.957031 0.960938 0.976563 0.964844 0.937500
0.949219 0.972656 0.976563 0.988281 1.000000 0.988281 0.980469 0.972656 0.992188 0.988281 1.000000 0.988281 0.988281 0.964844 0.972656 0.964844 0.957031 0.964844 0.980469 0.984375 0.976563 0.988281 1.000000 0.996094 1.000000 0.996094 0.996094 0.996094 0.992188 0.964844 0.988281 0.964844 0.976563 0.953125 0.953125 0.964844 0.964844 0.968750 0.964844 0.964844 0.964844 0.964844 0.984375 0.957031 0.941406 0.976563 0.972656 0.968750 0.984375 1.000000 1.000000 1.000000 1.000000 0.996094 0.980469 0.984375 0.988281 0.976563 0.984375 0.980469 0.980469 0.949219 0.964844 0.945313 0.953125 0.949219 0.964844 0.921875 0.925781 0.945313 0.945313 0.980469 0.996094 1.000000 0.996094 1.000000 0.992188 0.988281 0.992188 0.996094 0.992188 0.992188 0.980469 0.996094 1.000000 0.984375 0.976563 0.996094 0.996094 0.984375 0.976563 0.976563 0.976563 0.968750 0.972656 0.957031 0.980469 0.960938 0.972656 0.968750 0.960938 0.984375 0.964844 0.960938 0.972656 0.964844 0.957031 0.953125 0.960938 0.945313 0.976563 0.949219 0.960938 0.941406 0.917969 0.937500 0.925781 0.867188 0.867188 0.855469 0.917969 0.906250 0.902344 0.875000 0.867188 0.828125 0.835938 0.828125 0.808594 0.890625 0.847656 0.937500 0.972656 0.996094 0.972656 0.960938 0.941406 0.921875 0.902344 0.898438 0.875000 0.898438 0.949219 0.917969 0.968750 0.960938 0.992188 0.984375 0.980469 0.976563 0.976563 0.984375 0.964844 0.968750 0.984375 0.968750 0.968750 0.894531 0.914063 0.937500 0.882813 0.882813 0.867188 0.843750 0.882813 0.843750 0.820313 0.816406 0.734375 0.695313 0.703125 0.621094 0.632813 0.742188 0.707031 0.742188 0.738281 0.781250 0.914063 0.894531 0.875000 0.925781 0.921875 0.875000 0.878906 0.835938 0.843750 0.894531 0.972656 0.933594 0.886719 0.878906 0.867188 0.832031 0.789063 0.781250 0.773438 0.742188 0.820313 0.863281 0.878906 0.890625 0.921875 0.906250 0.847656 0.910156 0.925781 0.976563 0.976563 0.980469 0.968750 0.945313 0.910156 0.894531 0.902344 0.878906 0.906250 0.871094 0.839844 0.828125 0.914063 0.949219 0.960938 0.957031 0.945313 0.945313 0.953125 0.992188 0.968750 0.957031 0.953125 0.898438 0.867188 0.871094 0.894531 0.855469 0.945313 0.933594 0.949219 0.976563 0.976563 1.000000 1.000000 0.968750 0.902344 0.847656 0.851563 0.886719 0.878906 0.957031 0.906250 0.910156 0.902344 0.917969 0.917969 0.937500 0.910156 0.945313 0.941406 0.960938 0.980469 1.000000 0.988281 0.992188 0.988281 0.980469 0.929688 0.937500 0.945313 0.925781 0.960938 0.933594 0.937500 0.953125 0.964844 0.937500 0.949219 0.937500 0.929688 0.917969 0.914063 0.929688 0.945313 0.964844 0.929688 0.949219 0.949219 0.945313 0.980469 0.996094 0.996094 1.000000 0.968750 0.992188 0.996094 0.980469 0.964844 0.976563 0.957031 0.960938 0.953125 0.980469 0.992188 0.996094 0.984375 0.972656 0.984375 0.996094 0.992188 0.976563 0.968750 0.976563 0.953125 0.976563 0.953125 0.964844 0.933594 0.953125 0.933594 0.945313 0.960938 0.937500 0.925781 0.929688 0.937500 0.960938 0.960938 0.957031 0.972656 0.960938 0.941406
0.937500 0.968750 0.964844 0.984375 0.992188 0.980469 0.984375 0.984375 0.988281 0.984375 0.988281 0.992188 0.984375 0.984375 0.988281 0.972656 0.976563 0.988281 0.980469 0.980469 0.992188 0.996094 1.000000 0.996094 1.000000 0.996094 0.988281 0.988281 0.984375 0.957031 0.976563 0.980469 0.960938 0.972656 0.941406 0.949219 0.960938 0.960938 0.972656 0.941406 0.972656 0.953125 0.968750 0.984375 0.988281 0.960938 0.957031 0.945313 0.980469 0.992188 1.000000 0.996094 0.988281 0.988281 0.988281 0.988281 0.976563 0.980469 0.964844 0.968750 0.941406 0.957031 0.941406 0.933594 0.960938 0.960938 0.953125 0.957031 0.921875 0.906250 0.957031 0.980469 0.996094 1.000000 1.000000 0.992188 0.996094 1.000000 1.000000 0.992188 0.988281 0.996094 1.000000 0.992188 0.972656 0.996094 0.992188 0.992188 0.988281 0.984375 0.976563 0.968750 0.960938 0.980469 0.968750 0.980469 0.960938 0.960938 0.972656 0.960938 0.957031 0.960938 0.972656 0.972656 0.957031 0.988281 0.968750 0.933594 0.953125 0.968750 0.960938 0.953125 0.984375 0.933594 0.921875 0.933594 0.929688 0.875000 0.894531 0.855469 0.808594 0.828125 0.777344 0.871094 0.875000 0.886719 0.812500 0.828125 0.812500 0.777344 0.968750 0.992188 0.960938 0.992188 0.968750 0.945313 0.925781 0.878906 0.902344 0.835938 0.898438 0.894531 0.875000 0.894531 0.929688 0.945313 0.937500 0.960938 0.984375 0.968750 0.976563 0.968750 0.945313 0.968750 0.957031 0.941406 0.949219 0.929688 0.941406 0.902344 0.906250 0.890625 0.847656 0.828125 0.832031 0.828125 0.781250 0.777344 0.675781 0.738281 0.617188 0.656250 0.667969 0.703125 0.699219 0.734375 0.835938 0.859375 0.851563 0.890625 0.933594 0.949219 0.957031 0.863281 0.824219 0.867188 0.882813 0.914063 0.937500 0.957031 0.890625 0.859375 0.906250 0.878906 0.804688 0.777344 0.695313 0.773438 0.847656 0.863281 0.902344 0.941406 0.925781 0.921875 0.914063 0.917969 0.945313 0.968750 0.976563 0.972656 0.960938 0.957031 0.945313 0.882813 0.859375 0.882813 0.875000 0.878906 0.824219 0.843750 0.894531 0.890625 0.894531 0.925781 0.917969 0.949219 0.917969 0.968750 0.980469 0.953125 0.949219 0.968750 0.980469 0.949219 0.929688 0.937500 0.945313 0.988281 0.988281 0.976563 0.988281 0.996094 1.000000 1.000000 0.914063 0.855469 0.855469 0.863281 0.878906 0.894531 0.875000 0.839844 0.847656 0.847656 0.917969 0.917969 0.953125 0.972656 0.972656 0.953125 0.953125 0.964844 0.996094 1.000000 0.996094 0.992188 0.953125 0.949219 0.960938 0.917969 0.929688 0.894531 0.933594 0.917969 0.925781 0.910156 0.921875 0.937500 0.953125 0.933594 0.945313 0.890625 0.960938 0.949219 0.945313 0.949219 0.976563 0.972656 0.972656 0.972656 0.988281 0.992188 0.984375 0.988281 0.992188 0.984375 0.976563 0.945313 0.972656 0.960938 0.964844 0.984375 0.972656 0.988281 0.984375 0.957031 0.976563 0.996094 0.988281 0.957031 0.972656 0.968750 0.953125 0.972656 0.968750 0.964844 0.960938 0.910156 0.906250 0.882813 0.929688 0.937500 0.941406 0.957031 0.945313 0.937500 0.972656 0.937500 0.953125 0.960938 0.945313
0.957031 0.972656 0.988281 0.992188 0.980469 0.976563 0.988281 0.972656 0.984375 0.992188 0.992188 0.988281 0.988281 0.988281 0.996094 0.972656 0.972656 0.949219 0.980469 0.984375 1.000000 1.000000 0.992188 0.996094 0.996094 0.996094 1.000000 0.996094 0.984375 0.972656 0.988281 0.964844 0.972656 0.968750 0.960938 0.972656 0.949219 0.964844 0.953125 0.964844 0.941406 0.960938 0.984375 0.964844 0.968750 0.980469 0.976563 0.957031 0.972656 0.976563 0.996094 0.992188 0.992188 0.988281 0.984375 0.992188 0.972656 0.984375 0.964844 0.976563 0.949219 0.964844 0.925781 0.953125 0.925781 0.910156 0.945313 0.875000 0.953125 0.929688 0.980469 0.980469 0.992188 1.000000 1.000000 0.996094 1.000000 0.996094 0.992188 0.996094 1.000000 1.000000 0.992188 0.996094 0.984375 0.988281 0.996094 0.992188 0.996094 0.992188 0.992188 0.992188 0.964844 0.972656 0.972656 0.960938 0.972656 0.957031 0.968750 0.968750 0.953125 0.976563 0.953125 0.957031 0.968750 0.980469 0.964844 0.960938 0.953125 0.949219 0.937500 0.960938 0.953125 0.910156 0.937500 0.878906 0.925781 0.847656 0.816406 0.820313 0.730469 0.769531 0.750000 0.785156 0.800781 0.882813 0.902344 0.847656 0.886719 0.886719 0.898438 0.988281 0.972656 0.972656 0.953125 0.906250 0.882813 0.882813 0.847656 0.855469 0.855469 0.847656 0.886719 0.914063 0.925781 0.921875 0.945313 0.960938 0.941406 0.964844 0.964844 0.953125 0.957031 0.937500 0.921875 0.949219 0.910156 0.921875 0.937500 0.921875 0.917969 0.871094 0.917969 0.847656 0.828125 0.812500 0.800781 0.757813 0.714844 0.687500 0.625000 0.632813 0.605469 0.664063 0.742188 0.753906 0.871094 0.867188 0.812500 0.878906 0.914063 0.937500 0.937500 0.902344 0.921875 0.855469 0.843750 0.933594 0.976563 0.925781 0.875000 0.906250 0.910156 0.878906 0.886719 0.820313 0.792969 0.835938 0.894531 0.921875 0.906250 0.898438 0.925781 0.937500 0.929688 0.968750 0.937500 0.957031 0.980469 0.953125 0.945313 0.976563 0.972656 0.925781 0.945313 0.945313 0.898438 0.925781 0.902344 0.914063 0.921875 0.921875 0.917969 0.968750 0.968750 0.941406 0.933594 0.945313 0.960938 0.988281 0.972656 0.968750 0.957031 0.957031 0.980469 0.972656 0.968750 0.980469 0.980469 1.000000 0.992188 0.988281 1.000000 0.992188 0.945313 0.867188 0.910156 0.894531 0.878906 0.886719 0.828125 0.777344 0.839844 0.820313 0.871094 0.902344 0.921875 0.945313 0.984375 0.976563 0.941406 0.972656 0.976563 1.000000 0.996094 0.976563 0.968750 0.976563 0.949219 0.925781 0.906250 0.914063 0.925781 0.910156 0.917969 0.906250 0.914063 0.921875 0.925781 0.925781 0.917969 0.937500 0.960938 0.941406 0.960938 0.957031 0.976563 1.000000 0.968750 0.992188 0.992188 0.992188 0.992188 0.988281 0.996094 1.000000 0.984375 0.968750 0.984375 0.968750 0.972656 0.988281 0.996094 0.980469 0.984375 0.996094 0.988281 0.992188 0.980469 0.980469 0.980469 0.960938 0.960938 0.953125 0.933594 0.933594 0.925781 0.921875 0.929688 0.925781 0.937500 0.953125 0.914063 0.914063 0.945313 0.953125 0.957031 0.964844 0.933594 0.937500 0.964844
0.933594 0.937500 0.953125 0.980469 0.960938 0.964844 0.984375 0.976563 0.984375 0.984375 0.992188 0.996094 0.992188 0.980469 0.992188 0.976563 0.984375 1.000000 0.988281 1.000000 1.000000 0.992188 0.992188 0.988281 0.996094 0.992188 0.988281 1.000000 0.996094 0.996094 0.984375 0.976563 0.957031 0.972656 0.972656 0.968750 0.949219 0.945313 0.937500 0.964844 0.941406 0.933594 0.960938 0.972656 0.949219 0.960938 0.964844 0.972656 0.976563 0.984375 0.992188 1.000000 1.000000 0.992188 0.992188 0.992188 0.992188 0.972656 0.992188 0.953125 0.957031 0.941406 0.949219 0.941406 0.902344 0.894531 0.921875 0.953125 0.929688 0.957031 0.980469 0.968750 1.000000 1.000000 0.996094 1.000000 0.996094 1.000000 1.000000 1.000000 1.000000 1.000000 1.000000 1.000000 0.984375 0.996094 0.984375 0.988281 0.980469 0.984375 0.988281 0.992188 0.996094 0.976563 0.957031 0.964844 0.972656 0.964844 0.941406 0.960938 0.968750 0.960938 0.953125 0.957031 0.968750 0.910156 0.941406 0.953125 0.972656 0.953125 0.941406 0.949219 0.925781 0.945313 0.933594 0.906250 0.917969 0.843750 0.816406 0.804688 0.769531 0.781250 0.738281 0.816406 0.851563 0.828125 0.933594 0.878906 0.847656 0.886719 1.000000 0.988281 0.996094 0.960938 0.929688 0.859375 0.914063 0.882813 0.886719 0.855469 0.855469 0.898438 0.875000 0.914063 0.949219 0.929688 0.949219 0.957031 0.953125 0.957031 0.949219 0.949219 0.902344 0.929688 0.917969 0.902344 0.890625 0.933594 0.914063 0.910156 0.878906 0.902344 0.832031 0.859375 0.843750 0.789063 0.816406 0.757813 0.761719 0.710938 0.664063 0.636719 0.679688 0.703125 0.691406 0.687500 0.843750 0.773438 0.812500 0.785156 0.910156 0.964844 0.957031 0.914063 0.890625 0.914063 0.968750 0.984375 0.988281 0.898438 0.902344 0.906250 0.917969 0.914063 0.921875 0.921875 0.925781 0.847656 0.906250 0.890625 0.863281 0.917969 0.890625 0.937500 0.984375 0.972656 0.957031 0.960938 0.957031 0.945313 0.972656 0.968750 0.949219 0.976563 0.988281 0.980469 0.976563 0.964844 0.984375 0.957031 0.914063 0.925781 0.945313 0.988281 0.980469 0.953125 0.945313 0.898438 0.921875 0.984375 0.968750 0.988281 0.968750 0.949219 0.984375 0.964844 0.964844 0.976563 0.980469 0.980469 0.984375 0.992188 0.988281 0.972656 0.914063 0.902344 0.906250 0.890625 0.890625 0.859375 0.820313 0.785156 0.828125 0.847656 0.824219 0.882813 0.917969 0.953125 0.960938 0.972656 0.964844 0.949219 0.972656 1.000000 0.992188 0.980469 0.968750 0.953125 0.945313 0.929688 0.843750 0.894531 0.871094 0.898438 0.906250 0.917969 0.914063 0.929688 0.937500 0.949219 0.949219 0.949219 0.933594 0.976563 0.976563 0.984375 0.968750 0.980469 0.984375 0.988281 0.972656 0.992188 0.992188 0.988281 0.988281 0.980469 0.996094 0.972656 0.996094 0.988281 0.988281 0.980469 0.976563 0.988281 0.988281 0.964844 0.984375 0.976563 0.964844 0.964844 0.972656 0.976563 0.945313 0.921875 0.953125 0.898438 0.953125 0.925781 0.882813 0.878906 0.894531 0.898438 0.906250 0.925781 0.945313 0.941406 0.968750 0.960938 0.949219 0.960938 0.976563
0.945313 0.929688 0.957031 0.957031 0.980469 0.968750 0.984375 0.976563 0.980469 1.000000 0.988281 1.000000 0.984375 0.988281 0.988281 0.996094 1.000000 0.992188 0.996094 1.000000 0.996094 0.980469 0.996094 0.996094 0.980469 0.996094 0.984375 0.992188 0.996094 0.980469 0.988281 0.976563 0.976563 0.937500 0.957031 0.972656 0.980469 0.957031 0.964844 0.964844 0.945313 0.925781 0.964844 0.964844 0.964844 0.976563 0.921875 0.957031 0.957031 0.980469 0.972656 1.000000 0.992188 0.996094 0.992188 0.992188 1.000000 0.992188 0.980469 0.964844 0.933594 0.945313 0.949219 0.917969 0.925781 0.933594 0.945313 0.949219 0.945313 0.957031 0.964844 0.992188 1.000000 1.000000 0.996094 1.000000 0.996094 1.000000 1.000000 1.000000 1.000000 0.996094 1.000000 1.000000 0.996094 0.980469 0.988281 0.988281 0.988281 0.992188 0.992188 0.984375 0.992188 0.972656 0.984375 0.968750 0.984375 0.957031 0.988281 0.949219 0.972656 0.949219 0.972656 0.953125 0.941406 0.953125 0.933594 0.925781 0.953125 0.953125 0.953125 0.949219 0.921875 0.945313 0.894531 0.937500 0.835938 0.781250 0.828125 0.796875 0.816406 0.699219 0.710938 0.699219 0.828125 0.902344 0.898438 0.910156 0.949219 0.976563 1.000000 0.996094 0.976563 0.925781 0.906250 0.894531 0.878906 0.871094 0.828125 0.863281 0.824219 0.871094 0.917969 0.937500 0.949219 0.929688 0.937500 0.937500 0.960938 0.968750 0.941406 0.957031 0.914063 0.937500 0.937500 0.894531 0.898438 0.914063 0.921875 0.890625 0.878906 0.851563 0.890625 0.875000 0.820313 0.851563 0.796875 0.761719 0.761719 0.671875 0.671875 0.589844 0.664063 0.687500 0.695313 0.757813 0.796875 0.753906 0.800781 0.816406 0.855469 0.949219 0.953125 0.941406 0.968750 0.968750 0.914063 0.957031 0.996094 0.992188 0.925781 0.886719 0.886719 0.945313 0.957031 0.941406 0.949219 0.925781 0.914063 0.921875 0.898438 0.929688 0.925781 0.957031 0.957031 0.957031 0.964844 0.960938 0.953125 0.949219 0.964844 0.964844 0.980469 0.949219 0.988281 0.984375 0.988281 1.000000 1.000000 0.992188 0.957031 0.937500 0.945313 0.941406 0.941406 0.914063 0.902344 0.914063 0.921875 0.972656 0.972656 0.964844 0.992188 0.968750 0.968750 0.984375 0.968750 0.996094 0.976563 0.984375 0.992188 0.988281 0.972656 0.980469 0.960938 0.914063 0.945313 0.906250 0.910156 0.828125 0.835938 0.804688 0.804688 0.835938 0.898438 0.910156 0.945313 0.972656 0.953125 0.921875 0.953125 0.933594 0.957031 0.996094 0.988281 0.976563 0.960938 0.945313 0.937500 0.925781 0.859375 0.921875 0.878906 0.851563 0.859375 0.914063 0.863281 0.914063 0.949219 0.921875 0.941406 0.898438 0.941406 0.972656 0.992188 1.000000 0.988281 0.988281 0.968750 0.960938 0.964844 0.968750 0.968750 0.945313 0.964844 0.980469 0.972656 0.984375 0.988281 0.976563 0.984375 0.992188 0.984375 0.976563 0.976563 0.984375 0.984375 0.964844 0.972656 0.976563 0.964844 0.964844 0.937500 0.941406 0.949219 0.949219 0.902344 0.875000 0.871094 0.890625 0.906250 0.886719 0.921875 0.910156 0.964844 0.882813 0.937500 0.933594 0.960938 0.960938 0.980469
0.933594 0.937500 0.984375 0.976563 0.992188 0.980469 0.972656 0.972656 0.988281 0.992188 0.992188 0.988281 0.996094 0.992188 1.000000 1.000000 1.000000 1.000000 0.992188 0.980469 0.988281 0.988281 0.992188 0.984375 0.976563 1.000000 0.996094 1.000000 0.992188 0.992188 0.976563 0.976563 0.968750 0.960938 0.964844 0.945313 0.957031 0.957031 0.980469 0.964844 0.941406 0.929688 0.964844 0.957031 0.949219 0.941406 0.925781 0.949219 0.964844 0.980469 0.984375 1.000000 0.992188 1.000000 0.992188 0.996094 0.992188 0.980469 0.996094 0.976563 0.972656 0.925781 0.914063 0.921875 0.937500 0.933594 0.929688 0.941406 0.925781 0.968750 0.949219 0.988281 0.996094 1.000000 0.996094 0.992188 0.996094 0.980469 1.000000 0.984375 0.988281 0.988281 0.988281 0.972656 1.000000 0.988281 0.992188 0.972656 0.996094 0.996094 0.996094 0.996094 0.988281 0.984375 0.984375 0.972656 0.960938 0.957031 0.992188 0.968750 0.941406 0.937500 0.960938 0.964844 0.953125 0.917969 0.957031 0.945313 0.957031 0.968750 0.906250 0.925781 0.941406 0.894531 0.949219 0.914063 0.914063 0.855469 0.871094 0.851563 0.757813 0.785156 0.683594 0.812500 0.882813 0.890625 0.890625 0.953125 1.000000 0.996094 1.000000 1.000000 0.988281 0.968750 0.914063 0.917969 0.894531 0.914063 0.847656 0.824219 0.863281 0.871094 0.917969 0.960938 0.945313 0.964844 0.968750 0.957031 0.953125 0.968750 0.933594 0.925781 0.914063 0.925781 0.878906 0.921875 0.863281 0.886719 0.886719 0.890625 0.886719 0.871094 0.847656 0.832031 0.828125 0.796875 0.769531 0.773438 0.757813 0.734375 0.726563 0.675781 0.656250 0.730469 0.753906 0.718750 0.812500 0.828125 0.746094 0.808594 0.871094 0.921875 0.945313 0.894531 0.878906 0.859375 0.917969 0.945313 0.976563 0.984375 0.945313 0.933594 0.988281 0.949219 0.957031 0.976563 0.992188 0.964844 0.953125 0.914063 0.910156 0.929688 0.964844 0.957031 0.964844 0.964844 0.957031 0.957031 0.925781 0.914063 0.945313 0.941406 0.941406 0.906250 1.000000 1.000000 1.000000 1.000000 1.000000 1.000000 0.988281 0.960938 0.925781 0.945313 0.945313 0.894531 0.914063 0.921875 0.933594 0.929688 0.925781 0.917969 0.867188 0.921875 0.921875 0.960938 0.960938 0.980469 0.972656 0.980469 0.976563 0.964844 0.953125 0.941406 0.925781 0.894531 0.929688 0.933594 0.937500 0.886719 0.878906 0.824219 0.843750 0.839844 0.875000 0.953125 0.933594 0.949219 0.949219 0.953125 0.937500 0.937500 0.984375 1.000000 1.000000 0.980469 0.925781 0.949219 0.937500 0.894531 0.867188 0.925781 0.937500 0.875000 0.902344 0.906250 0.898438 0.914063 0.921875 0.929688 0.933594 0.921875 0.949219 0.984375 0.976563 0.984375 0.988281 0.984375 0.972656 0.964844 0.984375 0.972656 0.964844 0.945313 0.976563 0.976563 0.972656 0.992188 0.992188 0.984375 0.988281 0.968750 0.972656 0.957031 0.984375 0.988281 0.976563 0.972656 0.949219 0.964844 0.984375 0.941406 0.941406 0.917969 0.953125 0.937500 0.929688 0.929688 0.871094 0.890625 0.910156 0.910156 0.941406 0.925781 0.914063 0.925781 0.949219 0.921875 0.957031 0.937500 0.933594
0.941406 0.933594 0.941406 0.984375 0.968750 0.964844 0.968750 0.980469 0.980469 0.992188 0.996094 0.996094 0.996094 0.988281 0.980469 0.984375 0.980469 0.988281 0.996094 0.996094 1.000000 1.000000 0.992188 0.992188 0.988281 0.992188 0.992188 1.000000 0.996094 0.996094 0.980469 0.980469 0.968750 0.964844 0.964844 0.968750 0.960938 0.980469 0.953125 0.964844 0.949219 0.933594 0.957031 0.937500 0.921875 0.972656 0.964844 0.957031 0.984375 0.972656 0.988281 1.000000 1.000000 0.996094 0.996094 0.980469 0.984375 0.992188 0.984375 0.972656 0.976563 0.957031 0.949219 0.933594 0.933594 0.953125 0.949219 0.960938 0.929688 0.937500 0.968750 0.976563 0.992188 0.984375 1.000000 1.000000 0.996094 0.996094 0.996094 0.984375 0.980469 0.957031 0.960938 0.960938 0.980469 0.968750 0.980469 0.976563 0.984375 0.996094 0.976563 0.988281 0.988281 0.968750 0.976563 0.972656 0.968750 0.964844 0.964844 0.937500 0.957031 0.960938 0.957031 0.957031 0.968750 0.917969 0.925781 0.957031 0.933594 0.933594 0.941406 0.925781 0.933594 0.914063 0.882813 0.925781 0.878906 0.914063 0.902344 0.855469 0.871094 0.789063 0.769531 0.863281 0.878906 0.906250 0.949219 0.992188 1.000000 1.000000 0.996094 1.000000 0.988281 0.960938 0.976563 0.949219 0.929688 0.898438 0.867188 0.859375 0.855469 0.890625 0.933594 0.937500 0.957031 0.941406 0.964844 0.984375 0.945313 0.937500 0.929688 0.937500 0.910156 0.937500 0.941406 0.882813 0.910156 0.886719 0.910156 0.871094 0.855469 0.867188 0.851563 0.785156 0.828125 0.820313 0.863281 0.800781 0.761719 0.734375 0.726563 0.679688 0.691406 0.726563 0.718750 0.792969 0.851563 0.812500 0.757813 0.804688 0.917969 0.960938 0.921875 0.855469 0.847656 0.847656 0.890625 0.875000 0.972656 1.000000 1.000000 0.992188 0.988281 0.996094 0.992188 0.988281 0.984375 0.984375 0.984375 0.976563 0.964844 0.933594 0.941406 0.968750 0.972656 0.957031 0.902344 0.902344 0.917969 0.929688 0.949219 0.949219 0.968750 0.964844 0.980469 1.000000 1.000000 0.992188 0.976563 0.949219 0.953125 0.964844 0.976563 0.945313 0.910156 0.890625 0.843750 0.902344 0.921875 0.882813 0.890625 0.847656 0.863281 0.917969 0.902344 0.957031 0.960938 0.949219 0.964844 0.984375 0.980469 0.953125 0.937500 0.898438 0.941406 0.929688 0.914063 0.953125 0.914063 0.894531 0.871094 0.855469 0.839844 0.882813 0.910156 0.949219 0.957031 0.988281 0.964844 0.964844 0.937500 0.976563 0.992188 1.000000 1.000000 0.976563 0.984375 0.957031 0.980469 0.949219 0.898438 0.863281 0.910156 0.898438 0.902344 0.921875 0.937500 0.914063 0.933594 0.929688 0.941406 0.953125 0.964844 0.976563 0.960938 0.976563 0.976563 0.988281 0.972656 0.972656 0.992188 0.980469 0.984375 0.964844 0.992188 0.968750 0.968750 0.984375 0.984375 0.968750 0.980469 0.953125 0.984375 0.984375 0.988281 0.972656 0.984375 0.980469 0.980469 0.980469 0.980469 0.968750 0.953125 0.949219 0.941406 0.937500 0.917969 0.929688 0.921875 0.878906 0.890625 0.925781 0.921875 0.953125 0.929688 0.945313 0.917969 0.941406 0.957031 0.929688 0.925781
0.957031 0.933594 0.949219 0.964844 0.980469 0.972656 0.972656 0.988281 0.988281 0.992188 0.992188 0.996094 0.992188 0.972656 0.992188 0.968750 0.984375 0.996094 0.988281 0.996094 0.996094 0.984375 0.988281 0.992188 0.996094 0.988281 0.992188 0.988281 0.996094 0.992188 0.980469 1.000000 0.968750 0.972656 0.980469 0.964844 0.949219 0.992188 0.968750 0.964844 0.968750 0.972656 0.968750 0.964844 0.984375 0.968750 0.972656 0.964844 0.988281 0.988281 1.000000 1.000000 0.992188 0.980469 0.992188 0.996094 0.988281 0.984375 0.980469 0.972656 0.980469 0.949219 0.953125 0.953125 0.937500 0.960938 0.949219 0.960938 0.968750 0.960938 0.960938 0.964844 0.988281 0.988281 1.000000 0.996094 0.996094 0.996094 0.984375 0.980469 0.980469 0.976563 0.972656 0.972656 0.964844 0.968750 0.972656 0.996094 0.988281 0.996094 1.000000 0.984375 0.992188 0.960938 0.964844 0.960938 0.964844 0.964844 0.957031 0.929688 0.972656 0.976563 0.972656 0.976563 0.968750 0.960938 0.945313 0.933594 0.925781 0.914063 0.914063 0.929688 0.921875 0.914063 0.898438 0.902344 0.933594 0.906250 0.914063 0.886719 0.855469 0.832031 0.863281 0.890625 0.933594 0.953125 1.000000 1.000000 1.000000 1.000000 1.000000 0.988281 0.980469 0.968750 0.960938 0.964844 0.964844 0.960938 0.898438 0.933594 0.917969 0.937500 0.945313 0.976563 0.953125 0.964844 0.953125 0.945313 0.933594 0.960938 0.957031 0.910156 0.929688 0.906250 0.902344 0.941406 0.894531 0.898438 0.855469 0.867188 0.878906 0.851563 0.882813 0.781250 0.859375 0.824219 0.839844 0.824219 0.777344 0.699219 0.671875 0.656250 0.628906 0.648438 0.781250 0.796875 0.812500 0.839844 0.878906 0.925781 1.000000 0.902344 0.871094 0.894531 0.824219 0.832031 0.863281 0.875000 0.945313 0.992188 1.000000 0.996094 0.984375 0.992188 1.000000 0.996094 1.000000 0.992188 0.988281 0.980469 0.968750 0.968750 0.945313 0.953125 0.929688 0.917969 0.890625 0.917969 0.878906 0.894531 0.937500 0.960938 0.972656 0.972656 0.992188 0.992188 0.996094 0.980469 0.960938 0.980469 0.968750 0.972656 0.964844 0.964844 0.898438 0.871094 0.917969 0.886719 0.867188 0.902344 0.890625 0.894531 0.886719 0.871094 0.882813 0.898438 0.917969 0.917969 0.968750 0.984375 0.976563 0.945313 0.949219 0.960938 0.937500 0.953125 0.921875 0.937500 0.929688 0.906250 0.894531 0.890625 0.917969 0.921875 0.929688 0.960938 0.988281 0.957031 0.972656 0.953125 0.976563 0.972656 0.988281 1.000000 1.000000 0.992188 0.980469 0.953125 0.968750 0.953125 0.964844 0.921875 0.933594 0.937500 0.964844 0.933594 0.945313 0.937500 0.925781 0.898438 0.921875 0.929688 0.964844 0.980469 0.980469 0.972656 0.976563 0.988281 0.992188 0.996094 0.992188 0.976563 0.968750 0.957031 0.976563 0.976563 0.972656 0.976563 0.984375 0.945313 0.976563 0.957031 0.984375 0.980469 0.980469 0.976563 0.957031 0.964844 0.984375 0.988281 0.964844 0.929688 0.964844 0.937500 0.941406 0.953125 0.933594 0.941406 0.906250 0.890625 0.921875 0.894531 0.945313 0.933594 0.949219 0.941406 0.933594 0.953125 0.910156 0.945313 0.941406
0.945313 0.960938 0.941406 0.949219 0.992188 0.953125 0.968750 0.949219 0.957031 0.988281 0.964844 0.992188 0.976563 0.976563 0.968750 0.984375 0.957031 0.976563 0.988281 0.996094 0.984375 0.996094 1.000000 0.996094 1.000000 1.000000 1.000000 0.988281 0.980469 0.980469 0.988281 0.996094 0.980469 0.957031 0.953125 0.968750 0.968750 0.964844 0.972656 0.945313 0.964844 0.957031 0.960938 0.964844 0.960938 0.960938 0.953125 0.964844 0.996094 1.000000 1.000000 0.996094 1.000000 0.996094 0.988281 0.992188 0.988281 0.984375 1.000000 0.964844 0.980469 0.968750 0.960938 0.964844 0.941406 0.953125 0.968750 0.968750 0.972656 0.925781 0.957031 0.964844 0.972656 0.980469 0.984375 1.000000 0.992188 0.992188 0.992188 0.980469 0.972656 0.976563 0.964844 0.976563 0.960938 0.976563 0.953125 0.953125 0.980469 0.988281 0.992188 0.984375 0.988281 0.968750 0.972656 0.964844 0.960938 0.953125 0.960938 0.945313 0.972656 0.941406 0.972656 0.980469 0.941406 0.964844 0.960938 0.914063 0.914063 0.945313 0.914063 0.894531 0.890625 0.890625 0.914063 0.910156 0.921875 0.957031 0.925781 0.882813 0.882813 0.917969 0.921875 0.945313 0.984375 0.980469 0.996094 1.000000 1.000000 1.000000 1.000000 0.984375 0.980469 0.976563 0.945313 0.925781 0.984375 0.972656 0.949219 0.968750 0.996094 0.949219 0.960938 0.945313 0.937500 0.933594 0.972656 0.957031 0.949219 0.937500 0.933594 0.910156 0.925781 0.890625 0.890625 0.914063 0.871094 0.902344 0.886719 0.851563 0.851563 0.832031 0.824219 0.812500 0.847656 0.769531 0.824219 0.816406 0.847656 0.757813 0.671875 0.640625 0.640625 0.652344 0.718750 0.765625 0.820313 0.804688 0.878906 0.957031 0.972656 0.937500 0.886719 0.816406 0.835938 0.851563 0.917969 0.894531 0.902344 0.960938 0.996094 1.000000 1.000000 1.000000 0.988281 1.000000 0.992188 0.996094 0.988281 0.972656 0.968750 0.992188 0.953125 0.964844 0.957031 0.871094 0.882813 0.867188 0.886719 0.921875 0.945313 0.937500 0.964844 0.996094 0.996094 0.992188 0.988281 0.980469 0.972656 0.968750 0.980469 0.972656 0.957031 0.914063 0.898438 0.898438 0.925781 0.925781 0.871094 0.882813 0.875000 0.894531 0.910156 0.902344 0.894531 0.902344 0.937500 0.937500 0.957031 0.968750 0.984375 0.968750 0.929688 0.957031 0.953125 0.937500 0.953125 0.945313 0.921875 0.851563 0.890625 0.921875 0.949219 0.937500 0.929688 0.968750 0.988281 0.992188 0.968750 0.984375 0.984375 0.988281 1.000000 1.000000 0.992188 0.996094 0.976563 0.933594 0.968750 0.949219 0.933594 0.933594 0.937500 0.933594 0.937500 0.921875 0.960938 0.968750 0.933594 0.968750 0.945313 0.945313 0.984375 0.984375 0.984375 0.957031 0.996094 0.996094 1.000000 1.000000 0.996094 0.996094 0.984375 0.968750 0.960938 0.957031 0.992188 0.960938 0.968750 0.960938 0.972656 0.960938 0.968750 0.957031 0.949219 0.972656 0.960938 0.960938 0.957031 0.945313 0.972656 0.964844 0.921875 0.902344 0.933594 0.917969 0.921875 0.921875 0.941406 0.906250 0.906250 0.921875 0.917969 0.933594 0.914063 0.960938 0.937500 0.945313 0.945313 0.953125 0.937500
0.949219 0.945313 0.964844 0.976563 0.984375 0.957031 0.953125 0.953125 0.964844 0.960938 0.957031 0.968750 0.988281 0.972656 0.964844 0.984375 0.976563 0.976563 0.976563 0.996094 0.996094 1.000000 1.000000 1.000000 1.000000 1.000000 0.992188 0.992188 0.996094 0.996094 0.980469 0.984375 0.960938 0.949219 0.964844 0.945313 0.976563 0.925781 0.957031 0.976563 0.964844 0.976563 0.976563 0.960938 0.968750 0.964844 0.976563 0.976563 0.976563 0.984375 0.996094 0.996094 0.996094 0.996094 1.000000 0.984375 0.992188 0.996094 0.988281 0.992188 0.984375 0.972656 0.960938 0.976563 0.941406 0.972656 0.972656 0.953125 0.964844 0.953125 0.925781 0.960938 0.953125 0.949219 0.984375 0.964844 0.968750 0.980469 0.984375 0.980469 0.984375 0.968750 0.972656 0.957031 0.960938 0.968750 0.988281 0.980469 0.968750 0.976563 0.988281 0.980469 0.980469 0.960938 0.929688 0.968750 0.953125 0.964844 0.941406 0.937500 0.945313 0.937500 0.945313 0.972656 0.968750 0.949219 0.949219 0.929688 0.917969 0.929688 0.941406 0.941406 0.921875 0.917969 0.890625 0.902344 0.941406 0.968750 0.929688 0.937500 0.910156 0.968750 0.996094 0.984375 0.976563 1.000000 0.957031 0.992188 1.000000 0.980469 0.976563 0.968750 0.984375 0.980469 0.968750 0.976563 0.945313 0.976563 0.937500 0.972656 0.960938 0.964844 0.937500 0.968750 0.972656 0.964844 0.941406 0.945313 0.933594 0.945313 0.898438 0.941406 0.945313 0.898438 0.878906 0.910156 0.917969 0.890625 0.902344 0.859375 0.816406 0.792969 0.835938 0.750000 0.816406 0.796875 0.804688 0.808594 0.800781 0.800781 0.695313 0.625000 0.625000 0.746094 0.714844 0.761719 0.757813 0.785156 0.863281 0.937500 0.957031 0.898438 0.867188 0.859375 0.851563 0.875000 0.875000 0.917969 0.906250 0.988281 0.976563 0.992188 1.000000 1.000000 0.984375 0.980469 0.976563 0.972656 1.000000 1.000000 0.964844 0.980469 0.992188 1.000000 0.960938 0.921875 0.878906 0.886719 0.851563 0.894531 0.890625 0.910156 0.972656 0.988281 0.984375 0.976563 0.988281 0.984375 0.949219 0.976563 0.953125 0.945313 0.968750 0.894531 0.921875 0.902344 0.929688 0.921875 0.878906 0.894531 0.890625 0.902344 0.890625 0.890625 0.871094 0.910156 0.890625 0.937500 0.937500 0.953125 0.945313 0.976563 0.960938 0.917969 0.949219 0.925781 0.921875 0.945313 0.941406 0.945313 0.855469 0.910156 0.906250 0.949219 0.953125 0.972656 0.988281 1.000000 0.996094 1.000000 1.000000 1.000000 1.000000 0.992188 0.992188 0.976563 0.984375 0.949219 0.921875 0.953125 0.937500 0.937500 0.925781 0.953125 0.929688 0.933594 0.953125 0.953125 0.949219 0.960938 0.945313 0.957031 0.941406 0.992188 0.992188 0.988281 0.996094 1.000000 1.000000 0.996094 1.000000 1.000000 0.984375 0.968750 0.984375 0.972656 0.968750 0.980469 0.964844 0.941406 0.949219 0.949219 0.960938 0.968750 0.957031 0.937500 0.960938 0.957031 0.949219 0.976563 0.957031 0.925781 0.921875 0.933594 0.929688 0.937500 0.945313 0.917969 0.902344 0.906250 0.890625 0.914063 0.925781 0.941406 0.929688 0.949219 0.941406 0.964844 0.941406 0.914063 0.945313
0.960938 0.945313 0.953125 0.984375 0.949219 0.980469 0.941406 0.937500 0.976563 0.957031 0.968750 0.960938 0.964844 0.980469 0.953125 0.964844 0.968750 0.976563 0.980469 0.992188 0.996094 1.000000 1.000000 1.000000 0.988281 0.988281 0.988281 0.976563 1.000000 0.980469 0.996094 1.000000 0.988281 0.968750 0.945313 0.945313 0.949219 0.960938 0.941406 0.957031 0.968750 0.953125 0.964844 0.945313 0.960938 0.972656 0.980469 0.953125 0.972656 0.980469 0.972656 1.000000 1.000000 0.992188 0.992188 0.996094 1.000000 0.996094 1.000000 1.000000 0.996094 0.980469 0.957031 0.957031 0.960938 0.984375 0.964844 0.957031 0.957031 0.972656 0.957031 0.925781 0.937500 0.964844 0.976563 0.980469 0.972656 0.976563 0.996094 0.988281 0.984375 0.992188 0.968750 0.976563 0.988281 0.968750 0.972656 0.984375 0.988281 0.976563 0.988281 0.988281 0.988281 0.972656 0.960938 0.945313 0.960938 0.957031 0.949219 0.945313 0.964844 0.937500 0.968750 0.968750 0.980469 0.957031 0.980469 0.960938 0.949219 0.914063 0.906250 0.925781 0.914063 0.933594 0.929688 0.949219 0.941406 0.964844 0.902344 0.890625 0.859375 0.875000 0.949219 1.000000 0.992188 0.964844 0.957031 0.960938 0.988281 0.968750 0.957031 0.953125 0.976563 0.968750 0.996094 0.988281 0.953125 0.941406 0.972656 0.972656 0.960938 0.964844 0.984375 0.960938 0.980469 0.957031 0.957031 0.945313 0.929688 0.925781 0.921875 0.945313 0.925781 0.890625 0.894531 0.917969 0.910156 0.875000 0.863281 0.882813 0.882813 0.796875 0.781250 0.753906 0.746094 0.800781 0.769531 0.773438 0.847656 0.832031 0.816406 0.792969 0.773438 0.687500 0.730469 0.730469 0.792969 0.859375 0.933594 0.941406 0.929688 0.886719 0.921875 0.878906 0.937500 0.910156 0.925781 0.972656 0.957031 0.925781 0.960938 1.000000 1.000000 0.964844 0.968750 0.988281 0.988281 0.980469 0.980469 0.957031 0.996094 0.988281 0.984375 0.988281 0.980469 0.972656 0.933594 0.921875 0.925781 0.898438 0.929688 0.972656 0.976563 0.988281 0.976563 0.984375 0.984375 0.964844 0.980469 0.960938 0.945313 0.957031 0.968750 0.902344 0.902344 0.906250 0.929688 0.906250 0.898438 0.886719 0.894531 0.921875 0.917969 0.921875 0.949219 0.906250 0.906250 0.898438 0.925781 0.949219 0.957031 0.960938 0.972656 0.933594 0.925781 0.921875 0.929688 0.921875 0.925781 0.933594 0.929688 0.925781 0.929688 0.953125 0.964844 0.976563 0.992188 0.988281 0.996094 0.996094 0.996094 1.000000 1.000000 0.996094 0.996094 0.976563 0.980469 0.984375 0.972656 0.964844 0.941406 0.937500 0.945313 0.925781 0.937500 0.910156 0.906250 0.917969 0.941406 0.937500 0.925781 0.957031 0.960938 1.000000 0.988281 0.996094 1.000000 0.988281 0.996094 0.984375 0.988281 0.996094 1.000000 0.988281 0.964844 0.957031 0.937500 0.953125 0.968750 0.929688 0.953125 0.933594 0.902344 0.957031 0.945313 0.972656 0.949219 0.941406 0.937500 0.937500 0.953125 0.949219 0.972656 0.937500 0.953125 0.941406 0.929688 0.914063 0.925781 0.878906 0.925781 0.925781 0.949219 0.917969 0.957031 0.968750 0.937500 0.925781 0.910156 0.960938 0.984375
0.941406 0.964844 0.968750 0.953125 0.933594 0.937500 0.910156 0.949219 0.957031 0.941406 0.980469 0.968750 0.988281 0.972656 0.957031 0.976563 0.964844 0.972656 0.992188 0.980469 0.988281 0.992188 1.000000 1.000000 0.996094 0.996094 1.000000 0.992188 0.988281 0.972656 0.996094 0.992188 0.976563 0.960938 0.960938 0.949219 0.964844 0.968750 0.953125 0.957031 0.960938 0.964844 0.968750 0.972656 0.964844 0.949219 0.960938 0.980469 0.976563 0.968750 0.980469 0.992188 0.996094 0.988281 1.000000 1.000000 1.000000 0.992188 0.988281 0.996094 0.968750 0.957031 0.964844 0.992188 0.984375 0.984375 0.976563 0.976563 0.964844 0.972656 0.949219 0.964844 0.957031 0.960938 0.945313 0.964844 0.964844 0.968750 0.976563 0.992188 0.996094 0.992188 0.984375 0.984375 0.988281 0.968750 0.976563 0.980469 0.984375 0.992188 0.980469 0.972656 0.984375 0.964844 0.968750 0.949219 0.964844 0.941406 0.949219 0.960938 0.937500 0.941406 0.960938 0.968750 0.933594 0.960938 0.976563 0.945313 0.925781 0.957031 0.910156 0.921875 0.886719 0.937500 0.933594 0.960938 0.968750 0.949219 0.917969 0.917969 0.902344 0.832031 0.968750 0.996094 0.992188 0.957031 0.953125 0.937500 0.968750 0.937500 0.964844 0.964844 0.957031 0.929688 0.992188 1.000000 0.996094 0.984375 0.980469 0.992188 0.949219 0.960938 0.949219 0.937500 0.964844 0.941406 0.925781 0.929688 0.953125 0.921875 0.910156 0.894531 0.933594 0.906250 0.902344 0.894531 0.835938 0.878906 0.878906 0.832031 0.820313 0.785156 0.742188 0.746094 0.812500 0.773438 0.699219 0.804688 0.804688 0.859375 0.906250 0.882813 0.839844 0.800781 0.742188 0.761719 0.785156 0.832031 0.925781 0.996094 0.980469 0.902344 0.957031 0.929688 0.976563 0.957031 0.972656 0.898438 0.882813 0.953125 1.000000 1.000000 1.000000 0.984375 0.980469 0.972656 0.984375 0.988281 1.000000 0.996094 0.996094 0.976563 0.984375 1.000000 0.996094 0.980469 0.972656 0.972656 0.988281 0.996094 0.992188 0.996094 0.996094 0.992188 0.996094 0.984375 0.980469 0.972656 0.964844 0.980469 0.972656 0.957031 1.000000 0.941406 0.910156 0.945313 0.953125 0.937500 0.937500 0.921875 0.929688 0.929688 0.917969 0.890625 0.894531 0.941406 0.925781 0.910156 0.929688 0.925781 0.937500 0.949219 0.968750 0.933594 0.917969 0.933594 0.941406 0.960938 0.941406 0.957031 0.941406 0.972656 0.984375 0.984375 0.976563 0.996094 0.992188 0.984375 0.980469 0.980469 0.992188 1.000000 1.000000 0.992188 0.996094 0.988281 0.992188 0.957031 0.964844 0.960938 0.953125 0.945313 0.953125 0.933594 0.957031 0.921875 0.929688 0.914063 0.933594 0.929688 0.925781 0.957031 0.968750 0.988281 0.996094 0.992188 0.984375 0.992188 0.992188 0.988281 0.984375 0.996094 0.996094 0.960938 0.949219 0.960938 0.972656 0.960938 0.949219 0.902344 0.921875 0.937500 0.906250 0.941406 0.945313 0.964844 0.960938 0.941406 0.910156 0.953125 0.957031 0.953125 0.957031 0.921875 0.933594 0.949219 0.921875 0.957031 0.941406 0.875000 0.910156 0.906250 0.925781 0.953125 0.941406 0.957031 0.945313 0.933594 0.933594 0.968750 0.972656
0.949219 0.976563 0.949219 0.949219 0.937500 0.941406 0.929688 0.925781 0.957031 0.964844 0.964844 0.960938 0.968750 0.976563 0.953125 0.976563 0.957031 0.976563 0.972656 0.976563 0.984375 0.984375 1.000000 0.996094 1.000000 1.000000 0.980469 0.972656 0.996094 0.980469 0.980469 0.992188 0.980469 0.976563 0.929688 0.960938 0.945313 0.937500 0.949219 0.960938 0.937500 0.964844 0.957031 0.953125 0.957031 0.957031 0.960938 0.960938 0.972656 0.953125 0.968750 0.992188 0.996094 1.000000 1.000000 0.996094 0.996094 0.992188 1.000000 0.996094 0.972656 0.988281 0.964844 0.984375 0.972656 0.980469 0.984375 0.980469 0.976563 0.960938 0.972656 0.980469 0.953125 0.976563 0.976563 0.980469 0.980469 0.960938 0.964844 0.976563 0.972656 0.976563 0.980469 0.988281 0.984375 0.976563 0.980469 0.949219 0.984375 0.992188 0.972656 0.988281 0.984375 0.968750 0.980469 0.968750 0.949219 0.957031 0.968750 0.957031 0.964844 0.964844 0.957031 0.972656 0.988281 0.953125 0.933594 0.875000 0.867188 0.968750 0.957031 0.906250 0.929688 0.949219 0.964844 0.972656 0.933594 0.945313 0.910156 0.894531 0.906250 0.902344 0.964844 0.996094 0.980469 0.933594 0.933594 0.937500 0.945313 0.949219 0.914063 0.953125 0.976563 0.996094 1.000000 1.000000 0.996094 0.996094 0.992188 0.988281 0.976563 0.972656 0.957031 0.984375 0.964844 0.953125 0.945313 0.906250 0.937500 0.902344 0.925781 0.914063 0.921875 0.937500 0.921875 0.878906 0.875000 0.855469 0.835938 0.832031 0.769531 0.730469 0.820313 0.835938 0.753906 0.730469 0.699219 0.664063 0.781250 0.867188 0.902344 0.902344 0.906250 0.867188 0.835938 0.855469 0.878906 0.898438 0.980469 1.000000 0.976563 0.972656 0.964844 0.972656 0.941406 0.988281 0.914063 0.949219 0.949219 0.984375 0.976563 1.000000 1.000000 1.000000 1.000000 0.984375 0.972656 0.996094 1.000000 1.000000 0.980469 0.996094 1.000000 1.000000 1.000000 0.992188 0.988281 0.996094 1.000000 1.000000 1.000000 1.000000 1.000000 0.972656 0.980469 0.984375 0.976563 0.972656 0.988281 0.953125 0.964844 0.964844 0.988281 0.996094 1.000000 0.984375 0.960938 0.953125 0.886719 0.941406 0.929688 0.925781 0.937500 0.906250 0.929688 0.945313 0.917969 0.917969 0.937500 0.937500 0.968750 0.933594 0.976563 0.953125 0.972656 0.984375 0.964844 0.960938 0.941406 0.960938 0.968750 0.984375 0.980469 1.000000 0.992188 0.976563 0.984375 0.980469 0.972656 0.972656 0.964844 0.992188 0.992188 0.980469 0.996094 0.976563 0.960938 0.964844 0.957031 0.960938 0.972656 0.949219 0.960938 0.949219 0.953125 0.910156 0.914063 0.875000 0.914063 0.925781 0.941406 0.980469 0.996094 0.996094 0.964844 0.972656 0.980469 0.996094 0.976563 0.996094 0.996094 0.996094 0.976563 0.960938 0.964844 0.960938 0.925781 0.949219 0.972656 0.937500 0.933594 0.929688 0.894531 0.960938 0.941406 0.953125 0.964844 0.937500 0.945313 0.929688 0.976563 0.937500 0.917969 0.957031 0.972656 0.976563 0.957031 0.976563 0.957031 0.957031 0.906250 0.937500 0.917969 0.957031 0.925781 0.941406 0.941406 0.933594 0.964844 0.929688 0.968750
0.992188 0.968750 0.960938 0.960938 0.945313 0.960938 0.937500 0.968750 0.976563 0.964844 0.964844 0.957031 0.976563 0.972656 0.980469 0.964844 0.980469 0.972656 0.976563 0.984375 0.992188 0.988281 1.000000 0.996094 0.996094 0.996094 0.992188 0.992188 0.992188 0.992188 0.984375 0.980469 0.964844 0.980469 0.972656 0.988281 0.972656 0.937500 0.964844 0.953125 0.937500 0.976563 0.976563 0.949219 0.949219 0.941406 0.964844 0.953125 0.984375 0.953125 0.968750 0.972656 1.000000 0.996094 0.988281 0.996094 1.000000 1.000000 1.000000 1.000000 0.996094 0.980469 0.992188 0.988281 0.972656 0.976563 0.968750 0.968750 0.968750 0.980469 0.972656 0.964844 0.964844 0.980469 0.933594 0.984375 0.980469 0.968750 0.945313 0.972656 0.980469 0.960938 0.980469 0.976563 0.968750 0.972656 0.960938 0.996094 0.960938 0.992188 0.988281 0.980469 0.968750 0.953125 0.968750 0.976563 0.949219 0.953125 0.949219 0.964844 0.964844 0.976563 0.976563 0.968750 0.968750 0.953125 0.941406 0.894531 0.921875 0.894531 0.933594 0.953125 0.957031 0.972656 0.933594 0.937500 0.953125 0.972656 0.906250 0.902344 0.917969 0.949219 0.933594 0.988281 0.996094 0.964844 0.914063 0.886719 0.921875 0.937500 0.917969 0.980469 1.000000 1.000000 1.000000 1.000000 0.996094 0.992188 0.988281 0.984375 0.988281 0.957031 0.968750 0.984375 0.917969 0.925781 0.925781 0.933594 0.910156 0.917969 0.875000 0.921875 0.902344 0.890625 0.917969 0.929688 0.917969 0.816406 0.851563 0.839844 0.816406 0.765625 0.777344 0.789063 0.714844 0.707031 0.687500 0.703125 0.687500 0.816406 0.812500 0.878906 0.953125 0.953125 0.875000 0.828125 0.828125 0.847656 0.894531 0.980469 1.000000 0.957031 0.960938 0.972656 0.960938 0.964844 0.960938 0.964844 0.980469 0.988281 0.996094 1.000000 1.000000 1.000000 1.000000 1.000000 0.996094 1.000000 1.000000 0.996094 0.988281 1.000000 0.996094 1.000000 1.000000 1.000000 1.000000 1.000000 1.000000 1.000000 0.996094 0.992188 0.976563 0.980469 0.992188 0.968750 0.949219 0.992188 0.984375 0.984375 0.972656 0.992188 0.964844 0.996094 1.000000 0.972656 0.945313 0.968750 0.933594 0.957031 0.949219 0.960938 0.964844 0.910156 0.906250 0.917969 0.945313 0.949219 0.957031 0.929688 0.925781 0.953125 0.976563 0.980469 0.972656 0.972656 0.980469 0.996094 0.968750 0.980469 0.984375 0.992188 0.992188 0.964844 0.980469 0.972656 0.980469 0.976563 0.960938 0.957031 0.972656 0.957031 0.992188 0.988281 0.988281 0.968750 0.964844 0.953125 0.968750 0.972656 0.960938 0.964844 0.941406 0.925781 0.953125 0.937500 0.921875 0.875000 0.914063 0.945313 0.964844 0.968750 1.000000 0.980469 0.968750 0.972656 0.996094 0.980469 0.992188 0.992188 0.996094 0.996094 0.988281 0.949219 0.972656 0.960938 0.941406 0.937500 0.953125 0.929688 0.964844 0.941406 0.941406 0.941406 0.937500 0.949219 0.941406 0.960938 0.929688 0.960938 0.925781 0.953125 0.925781 0.933594 0.980469 0.984375 0.972656 0.964844 0.984375 0.984375 0.980469 0.941406 0.941406 0.906250 0.929688 0.937500 0.945313 0.917969 0.941406 0.980469 0.964844
0.992188 0.960938 0.960938 0.964844 0.941406 0.960938 0.941406 0.960938 0.964844 0.984375 0.976563 0.976563 0.953125 0.964844 0.972656 0.968750 0.988281 0.984375 0.988281 0.988281 0.984375 1.000000 1.000000 1.000000 1.000000 1.000000 0.992188 0.992188 0.988281 0.984375 0.964844 0.992188 0.996094 0.960938 0.972656 0.980469 0.976563 0.957031 0.933594 0.960938 0.949219 0.976563 0.968750 0.968750 0.949219 0.960938 0.960938 0.953125 0.968750 0.960938 0.972656 0.972656 0.972656 0.976563 0.996094 0.992188 0.988281 0.992188 0.996094 0.996094 1.000000 0.980469 0.972656 0.984375 0.976563 0.972656 0.945313 0.933594 0.972656 0.929688 0.960938 0.964844 0.976563 0.976563 0.960938 0.964844 0.960938 0.988281 0.953125 0.980469 0.976563 0.964844 0.976563 0.964844 0.976563 0.976563 0.964844 0.980469 0.980469 0.972656 0.976563 0.992188 0.976563 0.984375 0.960938 0.964844 0.988281 0.949219 0.937500 0.941406 0.945313 0.949219 0.992188 0.976563 0.945313 0.921875 0.898438 0.910156 0.863281 0.867188 0.957031 0.968750 0.992188 0.960938 0.960938 0.937500 0.976563 0.953125 0.960938 0.875000 0.921875 0.898438 0.937500 0.996094 0.984375 0.960938 0.937500 0.941406 0.917969 0.878906 0.953125 0.996094 1.000000 1.000000 1.000000 0.992188 1.000000 0.992188 1.000000 0.984375 0.980469 0.976563 0.960938 0.933594 0.933594 0.929688 0.906250 0.941406 0.910156 0.917969 0.910156 0.890625 0.906250 0.898438 0.894531 0.886719 0.894531 0.894531 0.832031 0.812500 0.835938 0.820313 0.785156 0.800781 0.761719 0.695313 0.679688 0.671875 0.675781 0.746094 0.812500 0.796875 0.886719 0.972656 0.957031 0.906250 0.867188 0.933594 0.949219 0.984375 1.000000 0.976563 0.964844 0.980469 0.988281 0.972656 0.976563 0.984375 0.988281 0.964844 0.996094 1.000000 1.000000 1.000000 1.000000 0.996094 1.000000 1.000000 1.000000 0.996094 1.000000 0.996094 1.000000 1.000000 1.000000 1.000000 1.000000 1.000000 1.000000 0.996094 0.976563 0.988281 0.988281 0.968750 0.968750 0.937500 0.980469 0.968750 0.980469 0.996094 0.976563 0.988281 0.992188 0.984375 0.984375 0.980469 0.957031 0.925781 0.937500 0.949219 0.933594 0.933594 0.933594 0.941406 0.921875 0.921875 0.902344 0.941406 0.894531 0.898438 0.937500 0.949219 0.953125 0.960938 0.960938 0.957031 0.968750 0.984375 0.972656 0.960938 0.968750 0.980469 0.972656 0.972656 0.976563 0.980469 0.972656 0.968750 0.964844 0.953125 0.921875 0.933594 0.984375 0.984375 0.976563 0.972656 0.976563 0.984375 0.992188 0.976563 0.964844 0.972656 0.980469 0.960938 0.968750 0.949219 0.925781 0.933594 0.945313 0.953125 0.980469 0.964844 0.984375 0.968750 0.941406 0.968750 0.933594 0.980469 1.000000 1.000000 1.000000 1.000000 0.984375 0.984375 0.972656 0.953125 0.945313 0.933594 0.960938 0.914063 0.921875 0.921875 0.929688 0.898438 0.929688 0.972656 0.960938 0.957031 0.933594 0.953125 0.914063 0.914063 0.917969 0.910156 0.972656 0.980469 0.976563 0.988281 0.984375 0.964844 0.957031 0.945313 0.941406 0.957031 0.949219 0.933594 0.937500 0.925781 0.914063 0.925781 0.972656
0.972656 0.929688 0.949219 0.945313 0.941406 0.964844 0.968750 0.984375 0.953125 0.980469 0.984375 0.968750 0.972656 0.980469 0.980469 0.980469 0.949219 0.953125 0.972656 0.980469 0.992188 1.000000 0.996094 0.996094 0.992188 0.992188 0.992188 0.976563 0.972656 0.972656 0.988281 0.972656 0.968750 0.988281 0.976563 0.976563 0.953125 0.968750 0.957031 0.945313 0.925781 0.964844 0.949219 0.957031 0.968750 0.957031 0.960938 0.933594 0.972656 0.972656 0.988281 0.988281 0.972656 0.968750 0.976563 0.984375 0.984375 1.000000 1.000000 1.000000 0.996094 0.992188 0.988281 0.964844 0.949219 0.972656 0.945313 0.960938 0.949219 0.957031 0.980469 0.960938 0.968750 0.968750 0.960938 0.960938 0.964844 0.968750 0.972656 0.972656 0.945313 0.968750 0.949219 0.949219 0.976563 0.980469 0.972656 0.980469 0.988281 0.984375 0.976563 0.972656 0.968750 0.968750 0.960938 0.976563 0.968750 0.964844 0.960938 0.964844 0.968750 0.957031 0.957031 0.929688 0.937500 0.917969 0.894531 0.847656 0.878906 0.816406 0.906250 0.960938 0.953125 0.980469 0.964844 0.972656 0.945313 0.937500 0.910156 0.890625 0.898438 0.898438 0.933594 1.000000 0.996094 0.949219 0.917969 0.937500 0.921875 0.933594 0.964844 1.000000 1.000000 0.996094 0.992188 0.992188 0.992188 0.980469 1.000000 0.988281 0.964844 0.968750 0.964844 0.957031 0.941406 0.898438 0.933594 0.894531 0.917969 0.902344 0.894531 0.910156 0.902344 0.925781 0.871094 0.894531 0.882813 0.890625 0.835938 0.804688 0.812500 0.824219 0.867188 0.750000 0.707031 0.660156 0.718750 0.601563 0.730469 0.730469 0.828125 0.886719 0.898438 0.953125 0.960938 0.960938 0.863281 0.925781 0.929688 0.972656 1.000000 0.964844 0.980469 0.980469 0.984375 0.964844 0.988281 0.984375 0.984375 0.988281 1.000000 1.000000 1.000000 1.000000 0.996094 0.996094 1.000000 1.000000 0.996094 1.000000 1.000000 1.000000 1.000000 1.000000 1.000000 1.000000 1.000000 1.000000 1.000000 0.992188 0.996094 0.976563 0.984375 0.980469 0.968750 0.945313 0.968750 0.976563 0.988281 0.992188 0.988281 0.988281 0.984375 0.980469 0.988281 0.980469 0.957031 0.933594 0.898438 0.949219 0.941406 0.921875 0.894531 0.929688 0.933594 0.886719 0.910156 0.914063 0.960938 0.941406 0.929688 0.945313 0.976563 0.968750 0.953125 0.968750 0.988281 0.972656 0.953125 0.964844 0.964844 0.953125 0.976563 0.980469 0.988281 0.968750 0.972656 0.964844 0.945313 0.953125 0.957031 0.968750 0.968750 0.964844 0.976563 0.996094 0.968750 0.964844 0.957031 0.968750 0.968750 0.980469 0.972656 0.992188 0.968750 0.972656 0.980469 0.988281 0.984375 0.968750 0.984375 0.921875 0.953125 0.949219 0.960938 0.968750 0.960938 0.992188 1.000000 1.000000 1.000000 0.992188 0.992188 0.992188 0.972656 0.937500 0.957031 0.941406 0.941406 0.957031 0.933594 0.949219 0.925781 0.914063 0.937500 0.953125 0.953125 0.968750 0.960938 0.953125 0.902344 0.886719 0.917969 0.929688 0.929688 0.984375 0.992188 0.972656 0.976563 0.972656 0.976563 0.949219 0.949219 0.933594 0.914063 0.902344 0.878906 0.917969 0.921875 0.941406 0.953125
0.992188 0.980469 0.964844 0.945313 0.976563 0.941406 0.980469 0.945313 0.980469 0.980469 0.984375 0.984375 0.976563 0.972656 0.953125 0.976563 0.980469 0.980469 0.984375 0.988281 0.988281 0.996094 0.992188 0.988281 0.992188 0.996094 0.992188 0.988281 0.992188 0.972656 0.972656 0.972656 0.957031 0.968750 0.984375 0.964844 0.957031 0.949219 0.949219 0.968750 0.957031 0.953125 0.988281 0.960938 0.964844 0.925781 0.972656 0.964844 0.968750 0.957031 0.984375 0.984375 0.984375 0.992188 1.000000 0.988281 0.980469 0.980469 0.984375 1.000000 0.988281 0.988281 0.980469 0.972656 0.953125 0.937500 0.949219 0.945313 0.960938 0.937500 0.937500 0.976563 0.968750 0.949219 0.953125 0.957031 0.949219 0.976563 0.921875 0.949219 0.960938 0.968750 0.957031 0.968750 0.937500 0.976563 0.984375 0.980469 0.992188 0.976563 0.980469 0.976563 0.972656 0.968750 0.984375 0.976563 0.984375 0.972656 0.941406 0.917969 0.964844 0.933594 0.949219 0.929688 0.937500 0.898438 0.925781 0.894531 0.882813 0.921875 0.867188 0.941406 0.917969 0.933594 0.933594 0.968750 0.953125 0.921875 0.921875 0.929688 0.902344 0.882813 0.960938 0.980469 0.941406 0.925781 0.917969 0.921875 0.937500 0.921875 0.964844 0.996094 0.988281 0.996094 0.996094 0.996094 0.996094 0.984375 0.976563 0.988281 0.984375 0.972656 0.933594 0.941406 0.917969 0.878906 0.925781 0.933594 0.906250 0.929688 0.882813 0.910156 0.890625 0.945313 0.914063 0.886719 0.824219 0.824219 0.812500 0.808594 0.785156 0.796875 0.847656 0.796875 0.750000 0.792969 0.730469 0.710938 0.792969 0.843750 0.839844 0.894531 0.933594 0.968750 0.945313 0.968750 0.968750 0.968750 0.992188 0.972656 0.980469 0.988281 0.996094 1.000000 0.988281 0.988281 0.992188 0.972656 0.988281 0.996094 0.996094 0.976563 1.000000 0.992188 0.992188 1.000000 0.996094 1.000000 1.000000 1.000000 1.000000 1.000000 1.000000 1.000000 1.000000 0.996094 0.992188 0.988281 0.980469 0.976563 0.992188 0.980469 0.984375 0.996094 0.968750 0.960938 0.960938 0.980469 0.980469 0.996094 0.996094 0.976563 0.960938 0.984375 0.960938 0.976563 0.972656 0.941406 0.964844 0.921875 0.910156 0.945313 0.894531 0.886719 0.933594 0.949219 0.917969 0.953125 0.917969 0.945313 0.941406 0.957031 0.945313 0.980469 0.937500 0.976563 0.964844 0.972656 0.976563 0.964844 0.984375 0.972656 0.976563 0.964844 0.957031 0.945313 0.972656 0.976563 0.949219 0.949219 0.957031 0.953125 0.937500 0.968750 0.984375 0.964844 0.984375 0.972656 0.976563 0.960938 0.980469 0.988281 0.972656 0.964844 0.984375 0.960938 0.957031 0.976563 0.960938 0.968750 0.941406 0.968750 0.953125 0.957031 0.953125 0.957031 0.976563 0.992188 1.000000 0.996094 0.972656 1.000000 0.996094 0.968750 0.960938 0.980469 0.945313 0.960938 0.949219 0.937500 0.906250 0.914063 0.937500 0.937500 0.949219 0.941406 0.945313 0.949219 0.933594 0.914063 0.953125 0.941406 0.945313 0.941406 0.960938 0.972656 0.988281 0.976563 0.984375 0.980469 0.980469 0.976563 0.964844 0.953125 0.917969 0.886719 0.925781 0.910156 0.917969 0.941406 0.925781
0.988281 0.957031 0.980469 0.976563 0.960938 0.988281 0.972656 0.957031 0.976563 0.964844 0.972656 0.992188 0.960938 0.968750 0.957031 0.976563 0.972656 0.972656 0.996094 0.996094 0.992188 0.992188 0.988281 0.996094 0.996094 0.992188 0.992188 0.980469 0.980469 0.968750 0.984375 0.980469 0.964844 0.968750 0.968750 0.964844 0.960938 0.960938 0.957031 0.968750 0.980469 0.953125 0.953125 0.941406 0.941406 0.957031 0.964844 0.953125 0.964844 0.996094 0.984375 0.972656 0.976563 0.980469 0.992188 0.984375 0.953125 0.984375 0.984375 0.984375 0.980469 0.988281 0.968750 0.976563 0.968750 0.957031 0.949219 0.949219 0.960938 0.957031 0.964844 0.968750 0.953125 0.933594 0.960938 0.929688 0.929688 0.968750 0.957031 0.937500 0.933594 0.964844 0.945313 0.960938 0.953125 0.921875 0.988281 0.984375 0.980469 0.980469 0.976563 0.988281 0.984375 0.968750 0.972656 0.972656 0.968750 0.972656 0.976563 0.945313 0.933594 0.910156 0.929688 0.937500 0.937500 0.949219 0.906250 0.933594 0.914063 0.914063 0.914063 0.914063 0.968750 0.980469 0.964844 0.953125 0.941406 0.917969 0.878906 0.859375 0.882813 0.914063 0.890625 0.886719 0.917969 0.906250 0.882813 0.851563 0.816406 0.832031 0.882813 0.937500 0.945313 0.976563 0.988281 0.976563 0.976563 0.988281 0.984375 0.984375 0.980469 0.957031 0.933594 0.914063 0.953125 0.910156 0.925781 0.890625 0.914063 0.929688 0.863281 0.898438 0.910156 0.886719 0.859375 0.839844 0.871094 0.820313 0.769531 0.796875 0.765625 0.828125 0.816406 0.710938 0.730469 0.746094 0.769531 0.773438 0.792969 0.843750 0.925781 0.957031 0.964844 0.972656 0.996094 0.984375 0.976563 0.929688 0.980469 0.992188 0.949219 0.968750 0.992188 0.988281 0.996094 1.000000 0.992188 0.992188 0.996094 1.000000 1.000000 0.980469 0.976563 0.964844 0.976563 0.992188 0.992188 0.992188 0.996094 1.000000 1.000000 1.000000 1.000000 0.996094 0.992188 1.000000 0.996094 0.992188 0.980469 0.992188 0.988281 0.996094 0.976563 0.972656 0.980469 0.992188 0.976563 0.957031 0.960938 0.988281 0.964844 0.972656 0.976563 0.964844 0.960938 0.953125 0.968750 0.964844 0.902344 0.941406 0.929688 0.859375 0.910156 0.902344 0.925781 0.925781 0.929688 0.917969 0.906250 0.960938 0.953125 0.945313 0.964844 0.964844 0.925781 0.957031 0.945313 0.980469 0.968750 0.980469 0.964844 0.976563 0.964844 0.988281 0.988281 0.988281 0.980469 0.957031 0.980469 0.937500 0.937500 0.957031 0.984375 0.972656 0.980469 0.984375 0.957031 0.980469 0.949219 0.960938 0.976563 0.960938 0.972656 0.976563 0.976563 0.964844 0.976563 0.972656 0.972656 0.968750 0.964844 0.960938 0.968750 0.960938 0.960938 0.937500 0.976563 0.976563 1.000000 0.996094 1.000000 1.000000 0.992188 0.980469 0.980469 0.953125 0.949219 0.953125 0.945313 0.914063 0.949219 0.917969 0.960938 0.949219 0.945313 0.960938 0.945313 0.933594 0.937500 0.917969 0.949219 0.957031 0.937500 0.972656 0.972656 0.968750 0.964844 0.992188 0.976563 0.980469 0.992188 0.984375 0.976563 0.937500 0.902344 0.957031 0.894531 0.894531 0.933594 0.949219 0.949219
0.988281 0.988281 0.984375 0.972656 0.972656 0.976563 0.972656 0.980469 0.976563 0.976563 0.980469 0.984375 0.972656 0.968750 0.976563 0.964844 0.960938 0.988281 0.968750 0.984375 0.996094 0.996094 1.000000 0.996094 0.976563 0.992188 0.968750 0.972656 0.964844 0.980469 0.957031 0.964844 0.988281 0.953125 0.984375 0.968750 0.953125 0.972656 0.976563 0.941406 0.964844 0.957031 0.945313 0.953125 0.957031 0.941406 0.984375 0.976563 0.984375 0.992188 0.984375 0.988281 0.984375 0.968750 0.992188 0.984375 0.988281 0.992188 0.980469 0.976563 0.972656 0.964844 0.968750 0.953125 0.949219 0.980469 0.957031 0.945313 0.914063 0.917969 0.957031 0.957031 0.976563 0.957031 0.945313 0.933594 0.972656 0.953125 0.960938 0.945313 0.929688 0.972656 0.945313 0.933594 0.957031 0.992188 0.957031 0.960938 0.984375 0.972656 0.968750 0.984375 0.960938 0.972656 0.953125 0.980469 0.976563 0.957031 0.964844 0.941406 0.957031 0.921875 0.917969 0.886719 0.906250 0.886719 0.871094 0.914063 0.902344 0.925781 0.921875 0.929688 0.941406 0.945313 0.929688 0.949219 0.917969 0.871094 0.824219 0.851563 0.820313 0.828125 0.812500 0.886719 0.871094 0.871094 0.906250 0.867188 0.855469 0.789063 0.824219 0.878906 0.941406 0.976563 0.988281 0.976563 0.988281 0.972656 0.984375 0.968750 0.976563 0.957031 0.933594 0.917969 0.906250 0.910156 0.921875 0.878906 0.882813 0.917969 0.890625 0.871094 0.902344 0.898438 0.882813 0.859375 0.871094 0.867188 0.828125 0.843750 0.863281 0.886719 0.925781 0.886719 0.750000 0.750000 0.746094 0.738281 0.781250 0.796875 0.847656 0.960938 0.988281 1.000000 0.972656 0.984375 1.000000 0.976563 0.960938 0.957031 0.964844 0.984375 0.964844 0.972656 0.992188 0.964844 1.000000 1.000000 0.996094 1.000000 0.992188 0.964844 0.949219 0.957031 0.988281 0.976563 0.980469 0.996094 1.000000 0.996094 0.984375 0.992188 0.980469 0.988281 1.000000 0.984375 0.988281 0.988281 0.992188 0.984375 0.992188 0.964844 0.984375 0.976563 0.972656 0.953125 0.984375 0.957031 0.988281 0.972656 0.976563 0.980469 0.972656 0.964844 0.937500 0.953125 0.941406 0.957031 0.945313 0.945313 0.937500 0.917969 0.886719 0.910156 0.878906 0.925781 0.937500 0.902344 0.902344 0.933594 0.949219 0.921875 0.960938 0.957031 0.921875 0.925781 0.964844 0.968750 0.968750 0.980469 0.972656 0.980469 0.960938 0.964844 0.968750 0.957031 0.992188 0.976563 0.972656 0.972656 0.953125 0.953125 0.964844 0.972656 0.988281 0.953125 0.976563 0.964844 0.945313 0.964844 0.968750 0.960938 0.972656 0.972656 0.945313 0.964844 0.988281 0.972656 0.988281 0.980469 0.964844 0.960938 0.960938 0.964844 0.964844 0.980469 0.964844 0.984375 0.984375 1.000000 1.000000 1.000000 0.988281 0.988281 0.992188 0.972656 0.953125 0.960938 0.941406 0.957031 0.890625 0.933594 0.925781 0.964844 0.945313 0.945313 0.960938 0.968750 0.941406 0.925781 0.921875 0.980469 0.968750 0.968750 0.945313 0.972656 0.964844 0.972656 0.980469 0.988281 0.984375 0.988281 0.960938 0.957031 0.925781 0.898438 0.882813 0.921875 0.902344 0.941406 0.945313
0.980469 0.996094 0.976563 0.972656 0.992188 0.960938 0.984375 0.992188 0.972656 0.972656 0.976563 0.972656 0.988281 0.980469 0.964844 0.984375 0.980469 0.980469 0.988281 0.976563 1.000000 0.988281 0.992188 0.996094 0.992188 0.984375 0.984375 0.976563 0.976563 0.957031 0.976563 0.980469 0.972656 0.976563 0.976563 0.980469 0.964844 0.964844 0.976563 0.949219 0.960938 0.957031 0.968750 0.960938 0.976563 0.953125 0.968750 0.984375 0.984375 0.968750 0.988281 0.992188 0.988281 0.988281 0.996094 0.972656 0.972656 0.988281 0.953125 0.984375 0.945313 0.968750 0.960938 0.972656 0.964844 0.972656 0.925781 0.968750 0.960938 0.953125 0.953125 0.960938 0.929688 0.953125 0.929688 0.937500 0.941406 0.949219 0.933594 0.953125 0.953125 0.925781 0.945313 0.953125 0.933594 0.949219 0.972656 0.992188 0.964844 0.984375 0.980469 0.960938 0.976563 0.972656 0.964844 0.972656 0.968750 0.964844 0.925781 0.945313 0.917969 0.921875 0.914063 0.937500 0.898438 0.890625 0.910156 0.878906 0.890625 0.921875 0.882813 0.929688 0.949219 0.957031 0.917969 0.875000 0.925781 0.886719 0.824219 0.863281 0.882813 0.871094 0.875000 0.863281 0.925781 0.921875 0.863281 0.828125 0.820313 0.835938 0.906250 0.910156 0.945313 0.957031 0.960938 0.976563 0.976563 0.968750 0.972656 0.964844 0.980469 0.929688 0.906250 0.949219 0.898438 0.886719 0.894531 0.898438 0.898438 0.832031 0.878906 0.902344 0.921875 0.902344 0.910156 0.917969 0.863281 0.894531 0.949219 0.949219 0.910156 0.894531 0.984375 0.960938 0.906250 0.808594 0.777344 0.777344 0.804688 0.859375 0.898438 0.917969 0.976563 0.972656 0.941406 0.929688 0.968750 1.000000 0.996094 0.968750 0.984375 0.976563 0.984375 0.984375 0.980469 0.984375 0.992188 0.992188 0.972656 0.976563 0.960938 0.953125 0.917969 0.957031 0.968750 0.957031 0.996094 0.996094 0.996094 0.988281 0.996094 0.988281 0.988281 0.988281 0.980469 0.988281 0.992188 0.984375 0.984375 0.968750 0.980469 0.976563 0.988281 0.984375 0.972656 0.992188 0.976563 0.968750 0.976563 0.968750 0.957031 0.964844 0.953125 0.957031 0.941406 0.917969 0.949219 0.941406 0.941406 0.972656 0.925781 0.937500 0.914063 0.906250 0.914063 0.914063 0.941406 0.980469 0.957031 0.945313 0.925781 0.960938 0.945313 0.949219 0.960938 0.945313 0.968750 0.949219 0.949219 0.949219 0.964844 0.957031 0.937500 0.980469 0.941406 0.964844 0.968750 0.972656 0.957031 0.968750 0.968750 0.984375 0.988281 0.964844 0.984375 0.980469 0.972656 0.949219 0.941406 0.964844 0.960938 0.941406 0.964844 0.957031 0.980469 0.957031 0.972656 0.972656 0.964844 0.968750 0.992188 0.964844 0.980469 0.957031 0.968750 0.984375 0.968750 0.984375 0.980469 0.992188 0.996094 1.000000 0.992188 0.972656 0.953125 0.964844 0.968750 0.964844 0.957031 0.941406 0.945313 0.910156 0.957031 0.972656 0.960938 0.964844 0.937500 0.960938 0.945313 0.925781 0.937500 0.953125 0.953125 0.937500 0.960938 0.968750 0.953125 0.988281 0.976563 0.988281 0.976563 0.957031 0.984375 0.941406 0.941406 0.890625 0.925781 0.910156 0.902344 0.921875 0.960938
