116.739799 116.866898 117.020699 117.162003 117.146004 117.199898 117.108101 117.169800 117.083298 116.961899 116.660202 116.417198 116.435600 115.955200 116.011200 115.255203 114.157402 114.061096 114.267700 114.164803 113.910698 114.088501 114.738403 114.872398 114.792297 115.070297 115.965500 116.297401 116.759598 117.263000 117.084396 116.946800 116.865501 116.785103 117.219002 117.555397 117.884804 118.649399 119.255302 120.509499 121.639000 122.649002 123.802902 123.832199 123.746399 123.708199 123.872803 123.946297 124.067398 124.301903 124.743301 125.166199 125.648003 125.968102 125.578003 125.533798 125.592499 125.413200 125.615601 126.100899 126.695702 127.013496 127.201698 127.713699 128.513702 129.087097 129.444901 130.330994 131.490005 132.775604 133.702805 134.226898 134.946701 135.876602 136.889206 138.443207 139.247192 140.008499 141.415604 142.175598 143.389496 144.660202 145.442505 146.571304 147.745605 149.187302 150.000107 151.023102 151.830704 152.086395 153.089401 153.579193 154.303497 154.452194 154.959106 155.104706 155.226303 155.219193 155.464905 156.121307 156.868896 157.186798 157.142593 157.281601 157.545303 157.814301 158.291504 158.410904 158.666794 158.843307 159.060303 159.288101 159.421799 159.773102 159.347107 159.757202 159.585800 159.724396 160.011505 160.458206 160.463806 160.588806 160.598907 160.563202 160.616196 160.173996 160.272293 160.069199 160.128601 159.921204 159.947006 159.876602 160.005707 160.172394 160.239304 160.565796 160.544006 160.586700 160.870102 160.897705 160.986099 161.142105 161.320908 161.567307 161.864594 162.268097 162.602402 163.004303 163.093201 163.616898 163.754593 164.067001 164.403900 164.485306 164.983704 164.896500 164.806702 165.025894 164.998093 165.247894 164.969894 165.013397 165.013901 165.401901 165.891800 166.236404 166.531296 166.748901 166.783096 166.836395 166.786697 166.744598 166.334305 166.276794 165.738800 165.443207 165.508408 165.758301 166.102905 166.105698 165.879700 165.511993 166.557297 167.434906 169.227493 169.253799 168.822296 168.813904 168.320801 167.940308 167.543701 167.606201 167.335602 167.166702 166.882996 166.744293 166.466400 167.031403 167.216599 168.014496 169.395096 169.977402 170.964096 170.955002 171.647003 171.835098 171.461197 171.955399 172.085205 171.845703 171.711700 171.733307 171.781204 171.978302 171.990005 171.775497 171.416702 171.270096 171.347397 171.285599 170.601807 170.239304 170.090103 169.898804 169.582001 169.698593 169.289398 168.734894 168.044800 167.170593 166.949905 166.254898 165.870407 165.220001 165.005402 164.335602 164.218002 163.970901 163.527603 163.258606 162.750702 161.958496 161.173492 160.250793 160.388794 159.873306 158.827393 157.696396 156.857803 156.159302 155.705597 155.540802 155.382797 155.415497 155.283005 155.250198 155.086700 155.014893 154.727097 154.299606 154.342606 153.825302 153.666107 153.314102 152.912292 152.789505 153.071793 152.448898 151.834900 151.489197 151.101105 150.585602 150.205597 149.721893 149.251099 148.598099 148.038406 147.492401 147.020294 146.393600 145.725494 145.058395 144.718399 144.278793
117.387703 117.340202 117.406998 117.449799 117.605698 117.745399 117.743103 117.866699 117.625099 117.430397 117.323097 117.205399 117.408302 116.917801 116.708900 116.109299 114.655296 114.378700 114.876602 115.116798 115.192802 115.120499 115.623901 115.784599 116.262199 116.822502 116.761597 117.149399 117.431602 117.812103 118.265198 118.126503 117.803299 117.373001 118.080803 118.253403 118.505898 118.858704 120.033096 121.231903 122.294502 123.415901 124.640900 124.951599 124.723999 124.931099 124.869797 125.050003 124.984901 125.087196 126.190102 126.605904 126.451103 126.512497 126.711998 126.708397 126.623497 126.743103 126.717903 127.057602 127.512604 127.929901 128.053406 128.506195 128.906998 129.470200 129.797897 130.751099 132.310501 133.514297 133.999603 134.428696 135.067993 135.784195 136.418701 137.603195 138.983704 139.901703 141.127197 141.864700 143.101898 144.259399 145.368698 146.529297 147.727905 148.867905 149.839996 151.079407 152.279297 153.162994 153.996399 154.399307 154.496902 154.769897 155.031906 155.290298 155.399094 155.463593 155.753006 156.122498 157.104095 157.700806 157.599899 157.680893 158.350998 158.507401 158.462296 159.061096 159.289703 159.788696 160.100494 160.381805 160.335007 160.940903 161.179901 161.525208 161.149002 161.047699 160.855499 161.122696 161.225601 161.308502 161.639206 161.755295 161.615906 161.543701 161.234406 161.092102 160.848404 160.852905 160.512894 160.436096 160.509201 160.779602 160.969406 161.034607 161.658905 161.711395 161.539001 161.552505 161.557907 161.594101 161.734802 162.080399 162.503098 162.833496 162.807205 163.358902 163.735199 164.185303 164.163300 164.297699 164.883408 165.286194 165.606506 165.505997 165.459000 165.544296 165.779999 165.910706 165.748093 165.707199 165.843002 165.769501 166.158600 166.649902 166.774597 167.052002 167.185394 167.084702 166.962601 166.802902 166.772003 166.475403 166.000397 165.911804 166.501297 166.755600 166.695007 166.639999 166.702499 166.887100 166.781204 167.562500 169.019608 169.894196 169.881195 169.984894 169.629700 169.333694 168.755798 168.004105 167.808395 167.804993 167.742798 167.628693 167.194504 167.548798 167.809692 169.361099 170.250397 170.518799 171.643005 172.151993 172.755905 173.054993 172.794907 172.792694 172.477005 172.185303 172.336502 172.209305 172.335098 172.237503 172.117004 171.974899 171.872604 171.873703 171.733994 171.562195 171.277496 171.130600 171.370102 171.520798 171.285202 170.878906 170.076508 169.464401 168.778000 168.299301 167.461899 167.164093 166.732193 166.454102 165.892899 165.571198 165.339905 165.121506 164.608902 164.190994 163.623093 162.938400 161.951996 162.040298 162.027298 162.027496 160.413101 158.966003 157.800201 156.864502 156.527695 156.654694 156.804901 156.444595 156.353195 156.037201 156.160599 156.274094 156.134506 156.124100 155.585800 155.032898 154.423004 154.103104 153.709305 153.698395 153.558395 153.550507 153.277802 152.582397 152.542694 151.800797 151.254501 150.387299 149.511398 148.657104 148.192703 147.583298 147.064804 146.504898 145.885895 145.253998 144.681793 144.156097
118.143898 117.987602 117.908897 117.904404 118.131798 118.251297 118.272598 118.438797 118.253700 118.173599 118.027397 117.973602 118.030403 117.835503 117.629898 117.028801 115.995102 115.410103 115.375702 115.645103 115.895699 116.222801 116.706802 117.177299 117.255203 117.424103 117.903900 118.568703 118.668503 119.048500 119.128197 119.392097 118.597298 118.373100 118.632401 118.883904 118.959198 119.480904 120.537697 121.446602 123.240097 124.070503 124.959396 125.670502 125.524399 125.801399 125.930298 126.053596 125.919296 126.248703 126.977402 127.160400 127.184700 127.380501 127.995003 128.091400 127.855202 127.525398 127.651901 127.976097 128.147003 128.418594 128.837997 129.244995 129.615707 129.935593 130.283096 131.348007 132.839996 133.727600 134.348404 134.630295 134.916901 135.572006 136.415298 137.403793 138.742798 139.794800 141.096100 141.949203 142.626602 144.090500 145.360703 146.614105 147.553406 148.749603 149.902603 151.422699 152.833298 153.737503 154.386093 154.659500 154.687500 154.745407 155.280396 155.313705 155.703705 155.863007 156.016495 156.549301 157.512497 157.916199 158.135605 158.509506 158.929504 159.290100 159.358093 159.469604 160.305298 160.375198 160.988998 161.373703 161.583099 161.930206 162.552505 162.371002 161.922302 161.768402 161.720505 161.697296 161.826294 162.060501 162.247696 162.403702 162.349304 162.459106 162.306198 161.965393 161.694901 161.288605 161.288101 161.235397 161.176193 161.282303 161.522003 161.636398 162.324905 162.229996 162.195694 162.316803 162.335602 162.265701 162.348099 162.647293 163.179901 163.283295 163.377106 163.996307 164.821701 164.817307 164.893600 165.336304 165.765900 165.846603 166.090500 166.165405 166.106705 166.119202 166.380997 166.387894 166.356201 166.263107 166.304306 166.264206 166.521500 166.873795 167.167007 167.189102 167.387497 167.341095 167.177902 167.068893 167.152405 166.996704 166.510895 166.527298 167.061707 167.593094 167.367096 167.700394 168.179504 168.124405 167.540894 168.563095 170.236404 170.897995 171.052994 170.842102 170.375000 169.781006 169.266602 168.758194 168.576004 168.318893 168.605606 168.544296 168.299301 168.437195 169.270493 170.091904 171.104706 172.085495 172.942596 173.284897 173.397095 173.958893 173.461700 173.439697 172.999802 172.805893 172.682007 172.586594 172.540695 172.448807 172.360703 172.324402 172.322296 172.367294 172.535995 172.407104 172.343704 172.315002 172.576004 172.486496 172.152695 171.731506 171.002197 170.344803 169.766403 168.960297 168.359100 168.024399 167.679794 167.296204 167.119797 166.666794 166.254593 165.777206 165.629303 165.052399 164.551407 163.619995 163.092102 163.111298 163.470703 163.954300 162.501801 160.250702 158.863693 157.611298 157.344696 157.274399 157.765198 157.567596 157.158401 156.962006 157.154907 157.437302 157.211899 156.666702 156.224197 155.926697 155.240295 154.801407 154.643295 154.513504 154.410294 154.287399 154.193695 153.779694 153.034302 152.389694 151.654297 150.781601 149.725098 148.901703 148.347198 147.665207 147.164597 146.664001 146.048599 145.504807 144.882599 144.407394
118.692101 118.505798 118.619102 118.502098 118.719002 118.981598 118.927498 118.904999 118.823997 118.785103 118.809196 119.024300 118.930199 119.144203 118.758904 118.233498 117.221497 116.482903 116.169899 116.133499 116.353401 116.796303 117.837997 118.145203 118.091698 118.313004 118.783798 119.528702 120.124496 120.340599 119.967903 119.901100 119.377800 119.400299 119.418404 119.385597 119.438202 119.830597 120.926102 122.310997 123.889702 125.244102 125.573196 126.280800 126.599403 126.665199 126.754601 126.653099 126.624298 127.029602 127.352203 128.108597 128.573395 129.196899 129.223694 128.568604 128.021301 128.586807 128.899307 128.862503 128.555099 129.044601 129.705795 129.971497 130.102600 130.524094 131.227493 132.199097 133.205399 134.057007 134.558594 135.057495 135.299698 135.793396 136.539200 137.575302 138.550598 139.588303 140.880203 141.865906 142.417801 143.358505 145.457596 146.800797 147.829895 148.642899 149.906906 151.126297 152.792007 153.873306 154.373306 154.689407 154.834595 155.175201 155.576294 155.736893 155.965500 156.221207 156.528000 156.966003 157.849503 158.303497 158.580704 158.988205 159.501801 160.095398 160.423599 160.675903 160.723999 160.858307 161.534698 162.052902 162.477203 162.948898 163.030304 162.927505 162.243896 161.908798 162.125595 162.306595 162.272598 162.333603 162.695999 162.874695 163.082397 163.198196 163.064499 162.817398 162.203995 162.098404 162.130295 161.865204 161.989700 161.833603 161.840897 162.178406 162.535507 162.788193 162.658005 162.863998 163.262299 163.400696 163.327896 163.274200 163.645706 164.158905 164.265305 164.791595 165.362106 165.687500 165.843903 165.964798 166.115204 166.253693 166.648895 166.823898 166.901306 166.837997 166.891296 166.790604 166.712997 166.579697 166.582001 166.557800 166.737000 167.159805 167.224792 167.412994 167.594193 167.443802 167.381302 167.600906 167.433594 167.719604 167.442596 167.517593 167.987000 168.099396 168.039795 168.476105 168.908798 168.997604 169.120407 169.250000 170.724594 171.476501 171.526703 171.262497 170.822495 170.223907 169.597595 169.369003 169.327103 169.302994 169.301804 169.332596 169.599106 170.279999 170.873901 172.196396 173.137802 173.772903 173.447800 173.663605 174.794601 174.832901 174.497696 174.174301 173.738602 173.487503 173.303497 173.217407 172.818298 172.824203 172.776001 172.769806 172.794998 172.955597 173.339996 173.134003 172.907394 172.832397 172.780807 172.698303 172.581696 172.280197 171.936996 171.268204 170.622192 170.043198 169.393295 168.782700 168.764008 168.489899 167.986404 167.610001 167.078796 166.696503 166.324005 165.755707 165.304901 164.733398 164.461899 164.639603 165.143707 164.740601 163.964203 162.947998 160.192993 159.265503 158.869598 158.425003 158.602493 158.543701 158.214401 158.160706 158.250198 158.174698 158.001404 157.307999 156.735794 156.220703 155.902802 155.594894 155.425293 154.987000 154.946503 155.018707 154.861694 154.391403 153.667099 153.045395 152.035904 150.934998 149.862305 149.171600 148.637497 148.017807 147.253494 146.613297 146.244202 145.653397 145.261902 144.674103
119.335701 119.158401 119.185997 119.093102 119.251900 119.400002 119.433701 119.341698 119.387901 119.491997 119.657501 120.017303 120.212898 119.853699 119.474800 119.126999 118.252998 117.477303 117.339600 117.260498 117.542801 117.676399 118.879799 118.936798 119.251801 119.392403 119.720001 120.142700 120.562698 120.872002 120.674400 120.468903 120.505997 120.391403 120.232903 120.110199 120.469704 121.055000 121.665100 123.322197 124.826202 125.698097 126.260498 126.944702 127.151703 127.466499 127.470596 127.559799 127.709396 127.974403 127.955902 128.594101 129.662704 129.659698 129.612305 129.402802 129.153503 129.103104 129.527496 129.908493 129.738998 129.903397 130.809006 130.849503 130.943604 131.380493 132.317596 132.861694 133.602798 134.379898 134.771805 135.081299 135.415497 136.069000 136.901794 137.807907 138.734100 139.665497 141.145599 142.081604 142.472702 144.220505 145.808304 147.192398 148.116302 149.069794 149.986603 151.323105 152.649002 153.791901 154.536499 154.947296 155.058105 155.542603 155.878693 156.091995 156.408295 156.863403 157.340195 157.605301 158.172501 158.942307 159.279800 159.714493 160.240906 160.785995 161.161896 161.599106 161.406998 161.432098 162.097000 162.623596 163.051300 163.434097 163.507401 163.051498 162.573196 162.476196 162.794907 163.010101 162.921600 162.827805 163.059006 163.376907 163.554001 163.701996 163.754700 163.329193 163.002197 162.735107 162.787598 162.643295 162.654099 162.543396 162.608505 162.770599 162.882004 163.219894 163.175705 163.493393 164.223007 164.416901 164.127701 164.415207 164.455002 165.004700 165.031693 165.862793 166.277893 166.263794 166.320602 166.462402 166.702301 166.990799 167.377197 167.437698 167.425201 167.450699 167.423401 167.389099 167.168396 166.994797 166.865402 167.128906 167.269302 167.235504 167.487305 167.611099 167.603302 167.625305 167.604797 167.722595 167.999298 167.941605 167.956802 167.994995 168.324997 168.609802 168.817398 169.205399 169.430496 169.833893 170.065201 170.508301 171.712097 171.941299 171.880203 171.470901 171.037399 170.782196 170.274597 170.213699 170.251404 170.169098 170.066299 170.260696 170.544693 172.017197 172.065201 173.452194 174.991394 174.780304 174.288193 174.259506 175.208496 175.344803 175.048096 174.783295 174.397903 174.156693 173.912704 173.618607 173.546799 173.454498 173.254501 173.404297 173.249405 173.787292 174.262802 174.005402 173.715302 173.701202 173.893097 173.655701 173.358200 172.798096 172.666504 172.293503 171.626007 171.190598 170.106293 169.594604 169.722305 169.546707 168.982895 168.434601 168.028595 167.651001 167.228897 166.729401 166.161606 165.947006 165.855804 165.843506 165.882507 165.715897 165.201096 164.248306 162.127899 160.972702 160.387299 160.181107 159.630005 159.258301 159.276398 159.105392 158.987900 158.722198 158.417603 157.921997 157.159195 156.731506 156.711197 156.446793 156.154800 156.069595 155.656799 155.503906 155.266800 154.649902 153.893997 153.093307 152.004807 151.095795 150.220001 149.442596 148.936096 148.283493 147.466797 146.888199 146.533905 146.109695 145.579102 145.150696
119.791496 119.780602 119.640701 119.711998 119.982399 119.959099 119.667801 119.685600 119.974503 120.454002 120.739899 121.192802 121.044800 120.716202 120.484802 119.795097 119.377403 119.285896 118.898499 118.964203 118.714104 119.095398 119.299896 120.252296 120.275002 120.797997 120.952797 121.042000 120.845901 120.922997 121.067596 121.104500 121.065300 121.292198 121.270699 121.424004 121.757004 122.170700 124.164398 124.736298 125.450401 126.319901 127.078003 127.604797 127.852898 128.066101 128.415405 128.658401 128.777206 128.862305 129.063904 129.292099 129.703506 130.194595 130.233902 130.279495 130.264603 130.242798 130.574005 130.307907 130.595505 131.040604 131.487000 131.617599 132.085403 132.577499 133.428894 134.065506 134.360596 134.663605 135.074295 135.456100 135.807693 136.182602 136.787598 137.688095 138.874603 139.969101 141.182098 142.357498 143.631302 145.074707 146.754898 148.020905 148.570099 149.488602 150.140305 151.285706 152.432404 153.571701 154.298798 155.085297 155.388901 156.001297 156.370804 156.730698 157.011200 157.428101 157.701294 158.574707 159.089600 159.459198 160.050095 160.513107 160.928696 161.087799 161.844101 162.105698 162.066193 162.194397 162.535904 163.016205 163.057693 163.209305 163.202301 163.015701 163.070099 163.429001 163.480301 163.713104 163.574799 163.509598 163.593704 163.704193 163.772995 163.913101 164.058105 163.970093 163.808502 163.654099 163.486298 163.506104 163.422302 163.214600 163.311295 163.662094 163.621994 163.681107 163.644699 164.125198 164.979294 165.127396 165.129303 165.360199 165.865997 166.392700 166.354401 166.530899 166.899399 166.891495 166.700104 166.741196 167.314697 167.642303 167.863800 167.839798 167.871704 167.871201 167.793594 167.753403 167.632996 167.473297 167.473999 167.526505 167.473404 167.694107 167.651505 167.621399 167.720596 167.767395 167.957993 168.145905 168.123001 168.181107 168.117096 168.236694 168.567993 168.932907 169.555893 169.729706 169.757706 169.934296 170.801498 171.649399 171.844299 171.980698 172.113800 171.845993 171.657196 171.373306 171.024399 170.839005 170.763397 170.731201 170.754303 171.370407 172.354095 172.582504 174.273102 174.882202 175.614105 175.891602 175.521500 175.201996 175.617493 175.664307 175.726303 175.425201 174.970001 174.745102 174.575607 174.426605 174.163803 174.243896 174.307800 174.251999 174.206207 174.011505 174.632507 175.082794 174.989594 174.458694 174.952103 174.444000 174.233002 173.590698 173.904602 173.179703 173.095993 172.391098 171.600296 171.053604 170.861496 170.369293 169.777298 169.255096 168.971100 168.626495 167.924606 167.480392 167.241394 166.967896 166.814697 166.527298 166.613403 166.351303 165.963501 165.019897 164.088898 162.848404 161.986404 161.388901 161.020599 160.447296 159.790604 159.514496 159.274094 158.895004 158.700195 158.192307 157.795502 157.270905 157.138794 157.253906 157.023193 156.806198 156.386597 155.952103 155.349106 154.542603 153.725098 152.806503 152.062103 151.137497 150.491806 149.805603 149.108307 148.563797 148.018906 147.529800 147.022293 146.651001 146.131195 145.635406
120.290604 120.296799 120.112099 120.233597 120.368301 120.398499 120.202003 120.448097 120.607101 120.912102 121.435402 121.914001 122.004501 121.639503 121.309502 120.741699 120.497002 120.284500 120.585503 120.407097 120.068802 119.961700 120.302902 120.945900 121.329597 121.862701 121.880402 121.740700 121.606796 121.242996 121.415604 121.633797 121.828903 121.939003 122.211304 122.158897 122.621803 123.398003 124.900299 125.956398 126.495903 127.077698 128.213501 128.419800 128.324600 128.447296 129.071503 129.411804 129.642303 130.033203 130.102798 130.186600 130.396896 130.593903 130.573303 131.128998 130.947006 130.946594 130.985199 131.136703 131.557495 131.708893 132.066895 132.378799 132.734207 133.412704 133.901199 134.396606 134.800705 135.092896 135.593506 135.625702 136.447098 136.850204 137.302094 138.306702 139.246994 140.409607 142.036102 142.879807 144.675293 145.889801 147.456497 148.469894 149.148605 149.746201 150.534302 151.432602 152.735703 153.746994 154.222000 154.957108 155.735107 156.333099 157.096405 157.462708 157.719604 158.006195 158.489899 159.010300 159.544998 160.186493 160.794098 160.972000 161.352097 161.438095 162.230103 162.436600 162.306900 162.542892 163.017395 163.128906 163.137299 163.131500 162.986496 163.192902 163.655701 163.810806 164.157898 164.130005 164.093307 164.029205 164.071701 164.045303 164.043701 164.155594 164.508194 164.441498 164.367294 164.310699 164.166504 164.243195 164.102997 164.022400 164.125198 164.241501 164.426498 164.174500 164.123901 164.807907 165.602798 165.880600 166.040604 166.278305 166.863693 166.997101 167.328201 167.350006 167.403900 167.302094 167.076294 167.321198 167.730301 168.168198 168.240005 168.295105 168.273804 168.252304 168.119003 168.072296 168.021393 167.927399 167.849197 167.998703 167.852997 168.074402 168.099701 167.947006 168.046600 168.130203 168.131195 168.559494 168.343399 168.483704 168.508698 168.528000 168.834000 169.312302 169.804596 170.184601 170.108505 170.520294 171.056595 171.776596 171.764496 172.078003 172.150803 172.171997 172.065094 171.884293 171.856903 171.550797 171.412796 171.655106 172.131897 172.462097 173.356598 175.034393 175.517593 176.202698 176.477493 176.744293 176.612305 176.314606 176.185196 176.223099 176.168594 175.964996 175.449600 175.153900 174.942596 174.831696 174.783401 174.699295 174.608398 174.488998 174.781097 174.646194 175.216797 175.442795 175.355392 175.531296 175.532501 175.197601 174.860901 174.627396 174.445496 174.432800 174.125900 173.652802 172.886597 172.150894 171.765900 171.320908 170.767303 170.146896 169.717499 169.295700 168.882294 168.598099 168.387695 168.367294 167.856796 167.307007 167.455307 166.981293 166.553299 166.186203 165.318497 164.366196 163.286301 162.443695 161.924393 161.434296 160.694397 160.222305 159.909607 159.319504 159.074203 158.685196 158.191803 157.915604 157.978500 157.892899 157.679199 157.470093 157.055801 156.581604 155.846603 154.641403 153.727905 152.987396 152.215195 151.600693 150.849304 150.253693 149.641495 148.961899 148.448196 148.072601 147.832596 147.308701 146.712402 146.032700
120.750603 120.564903 120.807602 120.828499 120.752602 120.884804 121.016602 121.239899 121.223000 121.524002 121.828300 122.117302 122.810799 122.674301 122.294197 121.870903 121.547798 121.813103 121.705597 121.481598 120.849297 120.963699 121.398697 121.884300 122.095596 122.500504 122.699097 122.542000 122.201500 122.245598 122.245201 122.432503 122.696404 122.699600 122.514503 122.783501 123.047897 124.258202 125.301804 126.658997 127.245598 128.738602 128.976807 129.636398 128.933594 129.128403 129.582993 129.740097 130.388397 130.802597 130.865494 130.791504 130.965393 131.004807 131.126801 131.224503 131.285202 131.700104 131.923401 131.687195 131.717407 132.045593 132.422607 133.154800 133.620193 134.125397 134.222198 134.539993 134.770599 135.259598 135.624496 136.288696 136.788895 137.509399 138.238800 139.188599 140.032593 141.287903 143.103394 144.032593 145.412598 146.871704 147.985901 148.900803 149.453293 149.848297 150.540207 151.824905 152.723404 153.775208 153.995697 154.653503 155.649200 156.660904 157.314102 157.968399 158.318604 158.814407 159.314804 159.740906 159.977493 160.378799 161.025696 161.273499 161.454803 161.486298 162.270096 162.597397 162.693207 162.843903 163.067902 163.164001 162.993896 163.106995 163.020905 163.425507 164.502594 164.661697 164.658905 164.573700 164.372101 164.294403 164.449707 164.413895 164.576904 164.753906 164.871307 164.865707 164.778107 164.835297 164.830994 164.776993 164.951294 164.943802 164.881195 164.886398 165.015396 165.082306 165.169495 165.227707 166.130402 166.251297 166.739502 167.077301 167.397598 167.698700 167.757401 167.789597 167.716202 167.591202 167.760101 167.971695 168.367996 168.653397 168.610306 168.740097 168.662994 168.588806 168.355606 168.398102 168.249100 168.415802 168.244705 168.445999 168.433807 168.401398 168.742096 168.590607 168.437195 168.542694 168.932999 169.054306 168.697006 168.706497 169.075394 169.100693 169.302902 169.491501 170.166107 170.478806 170.590302 170.869095 170.905701 171.274506 171.858902 172.120895 172.225998 172.153793 172.197495 172.387405 172.461395 172.487503 172.135300 172.733994 173.270294 173.341705 174.998199 175.772003 176.354797 177.110001 177.150696 177.436401 177.230896 177.168701 177.014404 176.751099 176.583298 176.376602 175.777603 175.432495 175.412506 175.020599 174.954498 174.880295 174.520096 174.774994 174.954498 175.028900 175.340302 175.508804 175.545197 175.669006 175.863495 175.721802 175.350098 175.147598 174.905899 175.255600 175.421799 174.981506 174.137604 173.035797 172.658798 172.407501 171.710403 171.190704 170.549103 169.801697 169.952698 169.994705 169.635498 169.469299 169.043198 168.381897 167.918396 167.775406 167.627396 166.929001 166.342300 165.333298 164.280807 163.472900 162.851501 162.262100 161.598999 161.165894 160.880402 160.154999 159.529297 159.065002 158.632599 158.441605 158.525894 158.378998 158.252106 157.932602 157.655304 156.882294 156.180603 155.412003 153.957001 153.082596 152.519806 152.049896 151.159805 150.532303 150.050400 149.526001 149.067703 148.410400 148.422607 148.065704 147.682098 147.141998
121.171700 121.161499 121.237602 121.300598 121.230301 121.304901 121.842903 121.788300 121.895203 122.040199 122.311699 122.924599 123.386497 123.160103 123.169601 122.742798 122.589302 122.772400 122.504097 122.224998 122.112297 121.797897 122.114403 122.927399 123.033401 123.065102 123.340302 123.245697 123.094498 122.935600 122.857101 123.062500 123.519203 123.402199 123.407700 123.646004 124.155403 125.457603 126.831703 127.828903 128.036804 129.423798 129.908707 130.527893 130.167496 130.296204 130.287994 130.332794 130.809799 131.183197 131.720306 131.613403 131.823303 131.949600 132.139008 132.204803 132.076797 132.067200 132.048294 132.066803 131.861603 132.130203 132.759598 133.478195 134.277802 134.445404 134.868805 134.985992 135.096207 135.530396 135.957794 136.769897 137.538803 138.561996 139.190094 140.315796 140.870300 142.136597 144.029404 145.271698 146.316803 147.513107 148.195297 149.187698 149.655304 150.289307 150.815506 152.028793 153.425705 153.942001 154.327606 155.126999 156.002304 156.693802 158.152100 158.623901 159.041901 159.544601 160.145294 160.445297 160.539200 160.802002 161.104797 161.281204 161.163101 161.360703 161.886902 162.212006 162.503494 162.906601 162.922699 163.038605 162.984695 163.242996 163.326904 163.677094 164.675507 165.224503 165.001007 164.853195 164.889999 164.841400 164.798904 165.180298 165.174606 165.436905 165.608704 165.832306 165.666306 165.364502 165.550797 165.416199 165.562897 165.826202 165.633408 165.651001 165.960403 165.964905 166.022293 166.122803 166.613602 166.944504 167.155701 167.577606 167.804398 167.934296 168.105606 168.223404 168.134201 168.171906 168.189194 168.433395 168.631195 168.796494 168.779999 168.813599 168.861206 168.789505 168.716797 168.654007 168.533997 168.544998 168.600098 168.718094 168.917404 169.052307 169.403198 169.115997 169.244400 169.466003 169.406403 169.765503 169.321198 169.296295 169.433502 169.687607 169.953201 169.908295 170.211700 170.649902 170.897903 170.926498 170.908295 171.320694 171.942993 172.269699 172.278000 172.293701 172.377197 172.658707 172.752396 172.972305 172.970093 173.648193 174.540497 175.221298 176.360703 177.110901 177.358597 177.351898 177.613098 177.792297 177.784698 177.797607 177.548706 177.420105 177.062897 176.833893 176.249405 175.871201 175.495300 175.361404 175.161606 174.891602 174.751404 174.661301 175.174103 175.395599 175.501907 175.658493 175.619507 175.947601 176.037704 176.161407 176.062103 175.831299 175.899094 176.207001 176.206696 175.718903 174.679504 174.197403 173.789795 173.202698 172.718903 172.156601 171.297394 170.889206 170.711197 171.052002 170.547699 170.228195 169.794998 169.451096 168.812805 168.405899 168.068207 167.818100 167.122803 166.278107 165.411697 164.491806 164.173996 163.130997 162.730499 162.282700 161.448196 160.973602 160.172394 160.088303 159.506607 159.336594 159.306000 158.950607 158.657898 158.358200 157.975403 157.507797 156.840195 155.695404 154.884003 153.947403 153.062500 152.705505 151.751602 151.098007 150.695496 150.070801 149.787201 149.375595 149.038193 148.789597 148.406494 148.163101
121.773903 121.656601 121.595100 121.816002 122.230003 122.167702 122.082802 122.511597 122.826500 123.334801 123.517197 123.488701 123.684998 123.652298 123.929298 123.950104 123.672401 123.490700 123.361504 123.369797 123.307404 123.316902 123.517998 123.811203 124.009399 123.982201 123.893097 123.892502 123.630302 123.690002 123.818901 123.730499 124.036903 124.258003 124.233704 125.116600 126.449600 127.321701 128.282898 128.969894 129.450302 129.872101 130.279907 131.181305 131.137405 131.613297 131.510803 131.356400 132.107697 132.166901 132.629196 132.713699 132.925095 133.161301 133.000793 132.976196 132.282593 132.213196 132.283997 132.207397 132.075699 132.417007 133.104004 133.876694 134.482101 135.063004 135.352997 135.532806 135.696793 135.850998 136.597595 137.570206 138.453094 139.315002 140.832993 141.554504 142.150406 143.478302 144.719299 146.490906 147.173096 147.852402 148.541595 149.139099 149.865799 150.665497 151.596497 152.720093 153.471603 154.573303 154.999496 155.497894 156.331497 157.225693 158.297897 159.212494 159.732605 159.975800 160.714996 160.889404 161.111694 160.882797 161.186096 161.094803 160.965195 160.903000 161.208603 161.842300 162.195496 162.361603 162.405396 162.699005 163.064896 163.416794 163.882996 164.290497 164.767105 165.416901 165.460403 165.405899 165.249893 165.597504 165.593201 165.980103 166.174103 166.146805 166.860794 166.618393 166.395798 166.386093 166.151199 166.080994 166.410294 166.455307 166.303299 166.384003 166.707397 166.773193 166.736496 167.027603 167.038193 167.312897 167.704102 167.815506 167.930099 168.054596 168.274597 168.398804 168.526993 168.521301 168.615906 168.642395 168.710403 168.722504 168.777100 168.858398 168.966400 169.076904 169.031204 169.064407 168.934601 168.886993 169.070007 169.369904 169.710297 169.758804 169.615906 169.598297 169.881805 170.330002 170.534897 170.323807 170.266006 170.239807 170.029099 170.331406 170.248001 170.300201 170.542099 170.648407 170.972198 170.987396 171.123199 171.603195 171.961807 172.302795 172.438202 172.535797 172.511200 172.631104 173.071304 173.511002 173.820206 175.005600 175.179199 175.947006 177.114105 177.705597 177.921799 177.847595 178.187607 178.263107 178.234100 178.195007 178.214294 178.068298 177.654007 177.217804 176.620300 176.130096 175.699707 175.373093 175.041000 175.053101 174.962997 174.922607 175.237198 175.463898 175.850403 175.735107 175.821503 175.936707 176.188797 176.494202 176.648895 176.996002 177.606903 177.301407 176.385696 175.890503 175.464996 174.983505 174.421097 173.792099 173.810898 173.311600 172.469604 172.014893 171.894104 171.850204 171.593002 171.169006 170.624695 170.061295 169.919006 169.355606 168.891006 168.332794 168.046997 167.474792 166.717606 165.984894 165.503906 164.757904 164.432297 163.596100 162.246704 161.728897 161.614807 161.336594 160.873306 160.186005 159.731705 159.610794 158.990494 158.778397 158.345306 157.881104 157.529800 156.923996 156.037003 154.973007 153.792603 153.162399 152.096603 151.705307 151.308304 151.044998 150.764999 150.242996 149.910706 149.604202 149.583893 149.058197
122.262100 122.222198 122.040001 122.099098 122.797699 123.122398 122.918098 123.044403 123.054604 123.547501 123.876099 124.122200 124.133598 124.346397 124.898804 124.823196 124.533501 124.155602 124.171097 124.142097 124.298798 124.306503 124.314400 124.703598 124.771004 124.841400 124.724098 124.501099 124.450798 124.431297 124.539200 124.720398 125.304298 125.839104 125.650200 126.301804 127.995796 128.889999 129.657196 129.990402 130.168106 130.451401 130.969406 131.475204 131.962708 132.431396 132.131302 132.371796 132.873398 132.906097 132.992203 133.290497 133.641296 133.951996 134.015305 133.395905 132.994797 132.601807 132.444794 132.364395 132.632401 132.929703 133.642807 134.131500 134.883606 135.787292 136.352600 136.202194 136.198395 136.626099 137.597595 138.356003 139.235001 140.185501 142.538101 143.214493 143.777802 144.637802 146.167404 147.015900 147.662399 148.267899 148.981201 149.464600 150.238907 150.943207 151.880707 153.290100 154.059692 154.895294 155.311096 156.151993 156.847900 157.624893 158.877899 159.527100 160.272797 161.018402 161.486893 162.015503 161.313293 161.414001 161.623199 161.589096 161.055603 160.911301 161.225693 161.523605 161.790604 162.082596 162.429596 162.643097 162.925598 163.403793 164.129196 164.713699 165.119995 165.378403 165.748596 165.796295 165.821701 165.978806 166.174896 166.611603 166.738907 167.043793 167.419998 167.722504 167.295807 167.199799 166.657898 166.640396 166.901505 167.047104 167.045105 167.178101 167.332596 167.561493 167.568100 167.630005 167.499100 167.888596 168.118103 168.299194 168.461304 168.574493 168.722107 168.807999 168.913498 169.018707 168.956802 168.880402 168.840607 168.889206 168.853607 168.848999 168.963394 169.134003 169.379898 169.356995 169.235001 169.227600 169.423294 169.851807 170.395096 170.445007 170.065796 170.048294 170.746704 170.964493 170.901901 170.887207 170.808899 170.714706 170.604294 170.593307 170.789001 170.798492 170.618896 170.726898 170.781799 170.915604 171.214905 171.519501 171.986801 172.514206 172.698395 172.878006 173.074203 173.324997 173.862793 173.989105 175.222504 175.726898 176.555496 177.245804 177.762497 178.513397 178.332108 178.588501 178.443207 178.796204 178.667801 178.932098 178.789795 178.489395 178.289200 177.922302 177.046600 176.594299 176.004105 175.709900 175.355499 175.134903 175.144196 175.057800 175.110504 175.433594 175.869995 176.134796 176.046204 176.314499 176.877197 177.178696 177.571396 178.221497 178.465897 178.254196 177.207703 176.637604 176.291306 175.722794 175.271500 174.948303 174.858505 174.325104 173.705902 173.513199 173.274597 172.877899 172.468307 171.980194 171.420502 171.137604 170.630402 170.343506 169.623398 169.356903 169.072495 168.414093 167.734100 167.062805 166.730698 166.388306 165.621094 164.562103 163.499405 162.580795 162.580795 162.169998 161.728500 161.218994 160.502502 160.057602 159.448395 159.100006 158.631607 158.409607 158.164200 157.548904 156.856293 156.008102 154.376099 153.591507 152.743393 152.177902 151.922501 151.676697 151.492294 150.943893 150.763504 150.373306 150.238602 149.786499
122.950600 122.795097 122.690399 122.773102 123.644096 123.905296 123.954399 123.819000 123.666901 123.926498 123.990097 124.423401 124.805000 125.286697 125.265503 125.257301 125.101303 125.139801 124.915298 124.903397 124.795197 124.952904 125.104401 125.073700 125.467201 125.648499 125.544998 125.528801 125.388100 125.145798 125.466003 125.855202 126.801201 127.459503 128.448303 128.537598 129.358795 130.039200 130.697098 130.772995 131.189804 131.357300 131.446503 131.578003 132.244095 133.009903 132.889893 133.085098 133.251404 133.235107 133.408600 133.730392 134.076401 134.461700 134.654297 134.630402 133.507004 133.137604 133.033203 133.135895 133.136993 133.768204 133.967697 134.954803 135.729294 136.338699 136.831497 137.252304 136.911301 137.339203 138.103607 138.971100 140.664398 141.897995 143.363800 144.577103 146.622192 146.746506 146.907501 147.301697 147.886703 148.691895 149.599304 150.430099 150.994904 151.886703 152.539307 153.245300 153.864197 154.739700 155.943893 156.479599 157.205093 157.827499 159.043106 160.283096 161.215302 161.920898 162.235107 162.067993 161.771896 162.022797 162.325104 162.194107 161.167297 161.163193 161.163193 161.517197 162.110001 162.208694 162.663193 162.855301 163.113007 163.460800 164.033096 164.581100 164.938599 165.561798 165.844299 166.107193 166.169006 166.317596 166.580307 166.955002 167.473206 167.900299 168.129807 168.033401 167.588104 167.633606 167.532303 167.532394 167.383408 167.634399 167.845901 167.867493 168.074493 168.301605 168.360001 168.521103 168.190598 168.301697 168.521805 168.920105 169.024094 169.270203 169.459595 169.381104 169.366104 169.300507 169.253998 169.221298 169.070007 169.097900 169.061401 169.055496 169.088898 169.288193 169.577194 169.669006 169.588806 169.731201 169.785599 170.132797 170.674500 170.850906 170.990204 171.213593 171.208206 171.228394 171.255295 171.203293 171.289307 171.251007 171.065094 170.997101 171.028198 170.990204 170.936295 170.888504 170.836899 170.811295 171.179993 171.185501 171.329803 172.337997 172.724106 173.228394 173.778198 174.115494 174.802505 174.916504 175.855499 176.122101 177.200699 178.676498 178.899200 179.167694 179.039505 179.162598 179.128098 179.026703 179.577499 179.528107 179.332001 179.262299 179.009094 178.416901 177.618805 176.970596 176.717407 176.248703 175.716400 175.119995 175.087906 174.994705 175.278595 175.550797 175.971100 176.263199 176.327896 176.569504 177.369095 177.543503 178.348907 178.755997 178.968307 178.535995 177.925903 177.473999 176.804703 176.421204 176.356094 176.195801 175.795105 175.542496 174.843094 174.605698 174.371902 173.822098 173.460495 173.160797 172.439301 171.930405 171.431396 171.172195 170.576294 170.076599 169.559799 168.965500 168.537201 168.019608 167.647400 167.296906 166.651093 165.926804 164.451904 163.899902 163.598297 162.967606 162.339401 161.546600 161.079102 160.422806 160.120193 159.799606 159.119202 158.865997 158.551804 157.925797 157.050705 156.103394 155.124298 153.768402 152.980804 152.494705 152.270203 152.285202 152.026703 151.655807 151.307800 150.865097 150.531006 150.264206
123.387398 123.392899 123.154701 123.367302 124.207100 124.588303 124.717499 124.593903 124.386902 124.326401 124.647598 124.964897 125.730797 125.744400 126.257599 125.940002 125.839104 125.689301 125.666901 125.510300 125.391701 125.421303 125.455902 125.903397 126.293701 126.339600 126.307503 126.397903 126.495102 126.528099 127.006897 127.634102 128.267303 129.203705 129.760803 130.264206 130.505997 131.030197 131.606705 131.684097 131.717102 131.986893 132.014603 132.484604 132.659897 133.230896 133.445404 133.707306 133.522797 133.453995 133.974396 134.342194 134.503403 135.045395 135.180099 135.046005 134.413895 133.972397 133.627396 133.561295 133.807800 134.488907 134.949997 135.707596 136.513107 137.214005 137.750595 138.034195 137.682205 138.270004 139.246094 140.200500 141.312302 142.961899 144.271103 145.687805 147.519196 148.429901 148.271606 148.292892 148.845093 149.259903 150.817398 151.210403 151.794495 152.263504 153.293701 153.921906 154.783600 155.458206 156.526505 157.024902 157.693207 158.404205 159.456299 160.598099 161.441803 162.216705 162.567795 162.881104 162.852402 162.926605 163.304306 163.247101 162.218903 162.215195 161.642700 161.883804 162.310898 162.440201 162.636093 163.042404 163.391006 163.711304 164.157394 164.690903 165.334000 165.799393 166.143600 166.421097 166.565308 166.695602 166.924393 167.240494 167.788696 168.009399 168.238205 168.165695 168.061996 168.028595 168.054794 168.038101 167.910706 168.084503 168.289703 168.461197 168.641098 169.016098 169.140198 169.106506 168.916901 169.071198 169.052505 169.293503 169.848206 170.063904 169.880005 169.826096 169.793793 169.786301 169.744598 169.466400 169.349701 169.321198 169.330597 169.312103 169.233994 169.429703 169.856506 170.048706 169.937500 170.206696 170.506500 170.486496 170.866394 171.055298 171.222595 171.369202 171.477798 171.586807 171.596405 171.559799 171.592896 171.483200 171.368500 171.356293 171.272003 171.223907 171.158203 171.080307 170.979996 170.906296 171.002106 171.311401 171.747894 171.978897 172.725403 173.500000 174.363098 175.222794 175.281296 175.716904 177.016006 176.944702 178.343704 178.783707 179.315796 179.538193 179.385193 179.631897 179.658005 179.989807 180.261703 180.168701 179.983093 179.898804 179.573502 179.137100 178.452301 177.889801 177.833298 177.068497 176.215698 175.885193 175.663406 175.548996 176.375793 176.497894 176.290695 176.855499 176.625397 177.195801 177.404999 178.314301 179.498993 179.634903 179.528503 179.096100 178.704803 178.168594 177.767303 177.357193 177.095596 177.006393 176.803497 176.514603 175.799500 175.477295 175.153198 174.728607 174.365799 173.775101 173.220795 172.695694 172.318497 171.921707 171.412903 170.934204 170.208405 169.632095 169.057404 168.560501 168.187302 167.878494 167.276703 166.796707 165.678497 164.810593 164.380600 163.798401 163.163895 162.181396 161.920502 161.196793 160.840500 160.156799 159.810593 159.355103 158.850693 158.339996 157.666199 156.512604 155.578293 154.656097 153.486801 153.289795 153.064606 153.030701 152.664505 152.412903 151.857803 151.365494 150.905701 150.470901
123.841797 123.740402 123.822701 124.058403 124.364998 124.858398 125.216301 125.280998 125.313599 125.357803 125.325500 125.265404 126.138199 126.531601 126.557800 126.590698 126.473602 126.362900 126.544197 126.291901 126.105103 125.956703 126.066498 126.265099 126.781998 126.813202 127.045403 127.398804 127.712097 128.800995 128.873093 129.564301 129.824905 130.155502 131.010193 131.298996 131.804993 132.070404 132.420700 132.408905 132.238098 132.296997 132.709305 133.150101 133.443298 133.664093 133.682800 133.701202 133.582993 133.741592 134.407303 134.699600 135.293701 135.263901 135.554306 135.338699 134.768204 134.533203 134.101395 134.140305 134.632294 135.414703 136.224594 136.657501 137.478302 138.020096 138.269394 138.494904 138.961105 139.708405 140.705399 141.421097 142.413895 143.225998 144.651703 146.059006 147.621704 148.603104 149.309799 149.555603 149.759796 150.347900 151.342102 152.248199 152.429901 152.999802 154.173798 155.201202 155.557602 156.013901 157.068604 157.783096 158.249298 159.114594 159.760300 160.384705 161.580002 162.237595 162.635406 163.188797 163.566803 163.932297 163.775803 163.635406 163.558197 163.254807 162.991196 162.539597 162.706207 162.734497 162.887100 163.329407 163.676804 164.059494 164.421402 165.216995 165.938004 166.462402 166.499405 166.592499 166.862396 167.197098 167.139297 167.413696 167.798294 167.998596 168.001495 168.233505 168.468399 168.515106 168.518707 168.514496 168.463501 168.590103 168.671997 168.939301 169.388107 169.358200 169.752899 169.708694 169.816498 169.832306 169.786407 170.046097 170.482193 170.425003 170.262100 170.273499 170.369904 170.290100 170.189804 169.866394 169.600296 169.486496 169.574799 169.617493 169.613907 169.872192 170.175003 170.441299 170.504700 170.877701 170.891006 171.027206 171.090805 171.068298 171.301804 171.298294 171.615601 171.784698 171.784500 171.746796 171.767197 171.725906 171.631104 171.631500 171.496399 171.402802 171.324493 171.302094 171.313095 171.228500 171.549301 171.736801 171.857101 172.507004 173.000702 174.197693 175.049698 175.419006 175.328705 176.095505 177.375702 178.345795 178.763397 179.089996 179.373795 179.568497 179.686005 179.946793 180.547607 180.765198 180.732407 180.588394 180.697296 180.462997 180.281601 180.146805 179.720398 179.522797 178.931595 178.233093 177.268097 176.561401 176.998703 177.154495 177.781494 177.462097 177.860397 177.406204 177.379700 177.134995 177.631805 178.297195 179.537598 180.131195 179.937500 179.832199 179.309296 179.058502 178.656403 178.256104 178.026093 177.853699 177.554306 177.321701 176.606903 176.160797 175.613693 175.181396 174.673996 174.392899 173.955399 173.614899 172.986099 172.666595 172.191803 171.572403 170.894501 170.200897 169.730698 169.273499 168.591202 168.167892 167.867905 167.190994 166.552200 165.639496 164.966202 164.472198 164.418793 163.906296 162.954605 162.368103 161.692398 160.773407 160.166000 159.645706 159.030899 158.462799 158.030594 157.334106 155.930893 155.277603 154.811096 154.257507 153.915298 153.528900 153.134201 152.751007 152.421295 151.798294 151.228699 150.670197
124.596497 124.348396 124.856598 125.020203 125.318398 125.260399 125.902397 125.960503 126.087997 126.050301 126.012604 126.421501 127.010101 126.935303 127.176697 127.223602 126.990601 126.893600 127.076897 127.008102 126.713600 126.630798 126.678596 126.855003 127.276604 127.511299 127.870102 128.149200 128.963593 129.613998 130.794098 130.851501 130.969193 131.211700 131.581207 132.062195 132.611801 132.848099 133.033203 133.095093 132.858505 132.895905 133.179794 133.388306 133.600494 133.885406 134.132401 134.250305 133.944901 134.287292 134.854599 135.216995 135.598694 135.798996 135.759003 135.620300 135.506302 135.590805 135.371399 135.478394 135.817398 136.500793 136.864395 137.816193 138.366699 138.787796 139.197998 139.576904 140.030106 140.766693 141.390594 142.450897 143.341400 144.437805 145.854599 147.137299 147.706497 149.332794 150.596893 150.606400 150.752197 151.800507 152.111298 152.781403 153.720993 154.099106 155.184402 155.589096 156.557999 157.063293 158.053894 158.522705 158.963593 159.660202 160.091599 160.850693 161.755402 162.345505 162.839706 163.496597 164.280197 164.313004 164.290497 164.496902 164.540298 164.266800 164.101303 163.776794 163.110794 163.143494 163.294403 163.710403 164.035507 164.522400 165.228806 165.729904 166.083206 166.792801 166.834305 167.066696 167.417206 167.770905 167.472900 167.719803 168.144394 168.231903 168.224396 168.300400 168.981293 168.938904 168.947998 168.866699 169.052200 169.025101 169.138000 169.591599 169.836304 170.185593 170.420197 170.367004 170.556702 170.416199 170.350006 170.651505 170.952194 171.093201 170.891098 170.885605 170.933197 170.820404 170.696899 170.391907 170.111801 169.852905 169.884506 169.902405 169.947495 170.140900 170.304504 170.815704 171.059601 171.236298 171.375000 171.438202 171.337204 171.272400 171.416199 171.464401 171.789200 171.951508 172.044205 172.090698 172.000000 172.018204 171.874100 171.814194 171.685898 171.604904 171.513306 171.521896 171.502701 171.680298 172.094406 172.204300 172.265900 172.795807 173.322296 174.412292 175.389206 175.828400 175.684799 176.465103 178.098694 178.836502 179.340103 179.468094 179.993698 180.120102 180.438904 180.632294 181.093597 181.363693 181.593903 181.708405 181.547104 181.553207 181.042099 180.936996 181.109406 181.047394 180.005905 179.131195 178.550903 178.122498 178.192902 178.726196 179.028503 178.798203 178.655106 178.543701 178.086105 177.874802 178.440002 179.283600 180.008499 180.560196 180.638000 180.478104 180.363297 180.134003 179.649902 179.452499 179.120895 178.722794 178.496506 177.814606 177.235199 176.761002 176.421906 175.670197 175.222000 174.854095 174.695099 174.241501 173.751007 173.276794 172.776199 172.261002 171.454300 170.927704 170.294907 169.780502 169.044296 168.712906 168.226593 167.670593 167.130005 166.718994 165.787201 165.296295 165.136505 164.494003 163.758499 162.987106 162.258804 161.635605 161.063797 160.519196 159.444901 158.870697 158.417892 157.543900 156.706207 155.909195 155.385406 155.074997 154.445908 154.073395 153.750000 153.172104 152.815002 152.383698 151.496902 150.991104
124.911797 125.497803 126.113899 126.317497 125.917999 125.893799 126.374603 126.987198 127.085999 127.171402 127.457001 127.503403 127.841698 127.892097 127.937401 127.781403 127.557297 127.462402 127.274696 127.331802 127.243698 127.175201 127.227402 127.354401 128.033295 128.501602 128.512207 129.205505 129.575195 130.472504 131.240601 131.716797 131.684692 131.899994 132.355301 132.789597 132.929794 133.057007 133.440201 133.494797 133.331207 133.390106 133.496201 133.667404 133.790695 134.067703 134.408401 134.731598 134.605103 134.875397 135.205307 135.458496 135.832108 135.910400 136.006607 135.897903 135.653397 135.782196 136.418198 136.561798 137.171402 137.941101 138.336304 138.428894 139.471100 140.077301 140.347000 140.948700 141.170395 141.770203 142.187607 143.364594 144.775497 145.989594 147.355194 148.099106 149.303101 150.348801 151.424500 152.606796 152.805695 153.328705 153.100403 153.670807 154.599106 155.366699 155.876801 156.392395 157.015396 157.719101 158.500595 158.924301 159.645401 160.307693 161.153595 161.827698 162.190796 162.735703 163.004303 163.824905 164.406601 164.767502 165.040497 165.081497 164.988098 164.970398 164.679306 164.240707 163.432602 163.467407 163.676804 164.158295 164.550797 164.987701 166.164795 166.348694 166.782196 167.030197 167.685104 167.885498 168.359894 168.374100 168.052795 167.975098 168.497498 168.607605 168.817200 169.177399 169.316895 169.550507 169.642197 169.522705 169.626801 169.766403 169.948807 170.068497 170.555801 170.941803 170.970901 171.081497 171.057999 171.072205 170.957703 171.157501 171.546097 171.750702 171.675598 171.607193 171.524506 171.484497 171.150299 170.854202 170.689804 170.283798 170.168503 170.160004 170.275101 170.330902 170.441895 170.738998 171.498306 171.885193 171.721207 171.659698 171.592804 171.531494 171.618393 171.836197 172.073807 172.396698 172.409897 172.414307 172.310303 172.176498 172.134995 172.009003 171.872101 171.795898 171.748795 171.754501 171.898407 171.951004 172.324997 172.466293 172.593201 173.328903 173.417297 174.115799 175.460403 175.998901 177.012405 177.155106 178.011307 178.826797 179.374802 179.983597 180.535599 180.642105 181.443497 181.599197 181.687698 181.861496 182.636398 182.945999 182.854904 182.576599 182.607300 182.936401 183.112000 182.474503 180.838303 180.200195 179.782700 179.267105 179.238403 179.381500 179.583801 179.425995 179.530106 179.529297 179.097397 179.772797 179.637604 180.106003 180.513596 181.128799 181.307693 181.774307 181.388306 181.389206 180.742493 180.338501 179.674500 179.164993 178.857697 178.379700 177.868393 177.337906 177.048203 176.429504 175.848206 175.494202 175.289795 174.911499 174.269608 173.694504 173.285995 172.730103 172.110703 171.690399 170.946793 170.268295 169.845703 169.079697 168.592606 168.111099 167.627304 166.983505 166.335693 165.869705 165.479401 164.870499 163.851196 163.275101 162.825104 162.496094 162.097000 161.499695 160.654495 159.702103 158.960602 157.870697 157.061203 156.345306 155.841797 155.510193 155.296799 154.714096 154.259598 153.742706 153.044098 152.720093 151.967896 151.507004
126.517601 126.429497 127.106300 127.235001 127.241699 127.010399 127.236298 127.676697 127.598503 128.206207 128.148407 128.604599 128.563797 128.485992 128.425400 128.244705 128.110107 127.786102 127.688797 127.515297 127.522797 127.637398 127.841301 127.983597 128.726898 129.077499 129.307297 129.759705 130.447403 131.244598 132.220306 132.667694 132.536194 132.821701 133.345901 133.227203 133.187805 133.318604 133.525208 133.912796 133.879303 133.884201 133.970398 134.077194 134.273102 134.664307 135.068207 135.294205 135.423401 135.448303 135.697296 136.039902 136.235703 136.479797 136.629501 136.353104 136.539902 136.728806 137.271896 137.862701 138.331802 138.705399 139.187897 139.711502 140.513794 141.276794 141.867996 142.361206 142.769196 143.410294 144.422897 145.330200 146.488403 147.636505 149.404907 149.709000 150.750107 151.673294 152.673096 153.377701 154.703506 154.940094 154.826996 154.766693 155.906403 156.584305 157.057297 157.289597 158.239304 158.583099 159.414703 159.918701 160.532593 161.028900 161.661896 162.192200 162.710297 163.067795 163.892502 164.292007 164.647003 165.198700 165.637100 165.649094 165.436493 165.297699 165.157501 164.930405 163.944397 163.971207 164.460999 164.714096 165.343903 166.397705 167.585495 167.239502 167.560699 167.776306 168.165695 168.975494 169.125702 169.174393 168.643600 168.605698 169.417694 169.378098 169.548706 169.742203 170.552795 170.261093 170.290405 170.088394 170.063797 170.127701 170.432098 170.791702 170.978897 171.220993 171.390793 171.464905 171.429993 171.364304 171.515198 171.740997 171.816803 172.201294 172.273499 172.273895 172.124100 171.958405 171.657806 171.524994 170.995102 170.677994 170.395996 170.342407 170.518707 170.473206 170.552399 170.918396 171.730499 171.926605 171.916199 171.950806 171.937500 171.958893 171.959595 172.063507 172.604095 172.717499 172.791000 172.717102 172.546295 172.392807 172.330597 172.230103 172.033997 171.981400 171.973099 172.032104 172.439896 172.462296 172.878799 173.039703 173.095795 173.850998 173.693802 174.781403 175.158295 175.895996 177.057907 177.594803 178.110504 178.430298 179.337799 179.994507 180.626007 181.146500 181.876602 182.302002 182.161301 182.506500 183.425201 183.610001 183.729004 183.664993 183.535507 183.903503 183.856094 183.393707 182.422302 181.543900 181.078506 180.667603 180.347107 180.196198 180.329102 180.723907 180.833496 180.279099 180.400696 180.173706 180.447205 181.304703 181.762894 181.949402 181.935806 182.416397 182.463104 182.137604 181.536896 180.970703 180.296600 179.753906 179.378006 178.835495 178.260101 177.696106 177.465195 177.021301 176.435898 176.152603 175.812103 175.257202 174.633606 174.116501 173.704102 173.230698 172.753693 172.174194 171.483994 170.757401 170.173294 169.741699 168.945999 168.397507 167.901001 167.435394 166.727997 166.222900 165.771393 165.085800 164.292694 163.648605 163.351303 163.199707 162.789307 162.098206 161.273895 160.108597 159.300598 158.782806 157.758606 157.015396 156.614807 156.036301 155.755096 155.437103 155.047501 154.181900 153.546097 152.968704 152.369293 152.060699
128.697403 128.531296 127.865097 128.309296 128.445297 128.444504 128.617996 128.350204 128.578903 128.608795 128.856293 129.253403 129.181396 128.940002 128.757507 128.551102 128.426605 128.160400 127.816101 127.779404 127.669403 127.792801 128.135696 128.587204 128.945694 129.486801 129.942993 130.767197 131.524994 132.613602 133.049896 133.441498 133.475204 133.692596 133.781204 133.731400 133.231400 133.231094 133.667603 134.362503 134.723694 134.708298 134.752106 134.768707 135.044403 135.147598 135.720505 136.180603 136.201096 136.393997 136.635605 136.810104 137.032501 137.270599 137.212708 137.391907 137.377899 137.740707 138.428802 138.666397 138.959702 139.541107 139.917892 140.609802 141.490707 142.243805 142.891998 143.600403 144.471405 145.426895 146.451508 148.110901 148.548798 149.799301 150.640198 151.623993 152.765900 153.287598 154.278900 155.238297 155.715103 156.186798 156.802399 157.327103 157.894699 158.283997 158.269897 159.039993 159.506607 159.625702 160.275406 160.633698 161.305695 161.619705 161.887207 162.627701 163.189407 163.687103 164.399307 164.935593 165.253296 165.670700 165.980804 165.959198 165.536102 165.591904 165.648300 165.272095 164.592499 164.724701 165.170395 165.607300 166.682907 167.973206 168.265106 168.597595 168.907700 169.134201 169.355606 169.932007 169.652893 169.811798 169.439804 169.873901 170.061905 170.620804 171.041107 171.128204 171.397797 171.410400 170.904602 170.841095 170.562302 170.419006 170.619400 170.834396 171.212097 171.368607 171.479004 171.555603 171.578400 171.662201 171.921005 172.196793 172.344498 172.602097 172.656906 172.526596 172.509796 172.244705 171.912994 171.685501 171.294098 170.964401 170.705994 170.684006 170.604797 170.579895 170.822906 171.087097 171.263794 171.765793 171.971695 172.339401 172.397598 172.439697 172.265106 172.530899 172.939102 173.222107 173.186203 173.049500 172.856995 172.622299 172.464294 172.376907 172.217407 172.169296 172.270203 172.498306 172.635696 172.903595 173.261703 173.572403 174.052902 174.689896 175.084702 175.217499 175.249603 175.378006 176.183304 177.284302 177.828995 178.097305 178.956802 179.595993 180.400894 181.198303 181.799500 182.451599 183.215393 184.061600 183.970703 184.240295 184.165497 184.637299 184.384293 184.738602 184.664597 184.316193 183.492401 183.188004 182.537903 181.885193 181.130905 181.399994 181.282898 181.678604 182.179596 181.861206 181.466797 181.461197 181.994003 182.219604 182.414093 182.689301 183.335495 183.242203 182.864502 182.422897 181.872406 181.319794 180.765305 180.095093 179.716003 179.106796 178.465698 178.074402 177.576797 177.282593 176.901093 176.454300 175.974899 175.464493 174.955399 174.532593 173.988495 173.504501 173.014206 172.631195 171.892303 171.293106 170.923599 169.952103 169.180695 168.542007 167.964600 167.478394 166.903107 166.325195 165.600800 165.059692 164.600601 164.199402 163.903000 163.636398 163.157394 162.709900 162.036407 161.202606 159.935699 159.514297 158.317505 157.753296 156.960205 156.747406 156.690399 156.390900 155.632294 154.769608 154.328003 153.480392 152.895203 152.357101
130.014404 130.008499 129.136307 129.394302 129.534805 129.334000 129.305496 129.367203 129.150696 129.216202 129.563797 129.880203 129.666504 129.425507 129.220901 128.952805 128.681000 128.425201 128.353394 128.038300 128.207397 128.445099 128.553802 128.972900 129.778702 130.365906 130.632706 131.183105 132.087006 133.071304 134.011597 134.283997 134.356400 134.239899 134.286194 134.305099 133.636002 133.601105 133.792496 134.360001 135.169693 135.456894 135.361694 135.583694 135.966797 136.222702 136.677307 136.823807 136.804398 136.983902 137.255493 137.482407 137.581207 137.731796 137.843307 138.095993 138.342499 138.748795 139.326797 139.458496 139.934296 140.314407 140.935699 141.799896 142.636993 143.324997 143.906204 144.979599 146.056000 146.918106 148.268906 149.377701 150.491104 151.242798 151.645706 152.813507 153.551804 154.582001 155.620407 156.297897 156.343399 157.345993 158.157501 159.035904 159.537201 159.463501 159.771103 159.885101 160.619797 160.984100 161.310394 161.638199 161.918594 162.169098 162.339493 163.160294 163.959106 164.346603 165.090195 165.393799 165.675598 165.985794 166.280502 166.090897 166.208405 165.935394 166.059402 166.193802 165.520203 165.612305 166.074295 166.679398 167.902298 168.537796 168.980392 169.607300 169.785797 169.819595 170.132202 170.318207 170.497604 170.610703 170.404907 170.604004 171.266907 171.519196 171.790695 171.963196 172.004196 172.044998 171.548004 171.176407 170.864807 170.883301 170.940399 171.221298 171.755096 171.831802 171.682602 171.783997 171.749802 172.041107 172.374496 172.544098 172.669800 172.757401 172.996796 173.022202 172.858994 172.654495 172.288895 172.013107 171.687195 171.175293 171.046204 170.993393 170.918304 170.843903 170.991806 171.247192 171.631302 171.887100 172.246307 172.535995 172.788803 172.721603 172.682907 172.765305 173.367996 173.596497 173.566895 173.482101 173.103699 172.909500 172.776001 172.574402 172.424698 172.348404 172.509201 172.707596 172.942795 173.328400 173.632599 174.296997 174.649002 175.003693 175.586502 175.447205 175.168503 175.694000 176.740204 177.290298 177.597397 177.908798 178.622604 179.934799 180.374893 181.302307 181.888901 182.906296 184.235001 184.832504 184.914398 185.104996 184.948502 185.135300 185.529907 185.441605 185.295105 184.947495 184.482407 183.970398 183.333694 182.869904 182.280899 182.349503 182.230896 182.278107 182.854095 182.749100 182.432205 182.566696 182.759399 183.061707 183.102997 183.438507 183.828003 183.736603 183.275101 182.778107 182.321594 181.825104 181.163101 180.555695 180.110001 179.451202 178.787506 178.378204 177.941498 177.613998 177.319107 176.864502 176.311401 175.760803 175.453400 174.907104 174.499405 174.006897 173.477707 173.078003 172.365601 171.825394 171.212708 170.401001 169.532501 168.696899 168.136902 167.555099 167.056503 166.433594 165.823303 165.288895 164.923492 164.538605 164.295898 164.086197 163.723297 163.116699 162.497406 161.712906 160.958099 160.067398 158.854904 158.552399 157.774506 157.630905 157.281693 157.033005 156.133408 155.397400 154.596893 153.886902 153.205307 152.787506
130.886307 130.832901 130.939194 130.785202 130.335693 130.231094 130.036102 129.899399 129.826706 129.988998 130.464401 130.656906 130.481094 130.031006 129.510193 129.303802 129.067596 128.863693 128.675095 128.697205 128.860107 128.737900 129.235001 130.073303 131.291107 131.379807 131.068497 131.483505 132.801605 133.815994 134.597107 134.904099 135.014801 135.102707 134.968796 134.832993 134.680695 134.522797 134.113007 134.500702 135.173599 135.713806 136.102997 136.118896 136.994705 137.376694 137.501999 137.593903 137.335602 137.621506 137.874298 138.165497 137.986099 138.096695 138.389694 138.787598 139.746201 139.795898 140.037704 140.446198 140.835907 141.950500 142.471802 142.826797 143.652206 144.269196 145.201996 146.142807 147.619705 148.948502 149.109802 150.201401 150.973694 151.291107 151.759598 152.316696 153.686203 154.677994 155.916000 156.640106 157.457504 158.279602 158.970795 159.806107 160.276505 160.570801 160.937805 161.041397 161.314499 161.612503 161.930801 162.388306 162.558701 162.679398 163.055496 163.649307 164.468903 164.692596 165.569397 165.810501 165.956894 166.159607 166.353302 166.718796 166.748596 166.666306 166.473007 166.429794 166.555893 167.210098 167.551407 167.856400 168.567596 168.909393 169.509094 170.000305 170.473007 170.658905 170.915100 171.160706 171.013596 171.096207 171.398300 171.656693 172.124802 172.427094 172.571793 172.490097 172.593994 172.531906 171.997101 171.566193 171.357101 171.523193 171.798904 172.024597 172.324600 172.326996 172.132904 172.212708 172.168594 172.194107 172.681000 172.768295 172.945999 173.018402 173.279099 173.475601 173.601593 173.093399 172.635696 172.157700 171.854202 171.714401 171.545105 171.301895 171.174301 171.123596 171.151306 171.381699 171.983002 172.363693 172.546402 172.727005 172.968002 172.971100 173.062393 173.177994 173.722794 173.807007 173.807907 173.720200 173.382507 173.220505 173.071793 172.892105 172.697693 172.654007 172.823700 173.062805 173.208099 173.795807 174.247406 174.738007 175.204102 175.365295 175.783203 175.810898 175.587402 175.930801 176.856598 177.423492 177.737503 178.300797 179.608398 181.097702 181.786407 182.770493 182.587006 183.109802 184.608994 185.536102 185.808807 185.936905 185.676300 185.541504 185.882996 185.964005 186.198807 185.628204 185.220093 184.358093 183.946503 183.406998 183.362396 183.115402 182.873001 182.813904 183.506699 183.899796 183.297104 183.055893 183.266602 183.359299 183.482193 184.093903 183.982498 183.980392 183.695999 183.411407 182.953003 182.266205 181.633896 181.066498 180.393707 179.761200 179.270294 178.832901 178.324005 178.017303 177.732605 177.372192 176.941605 176.423904 175.971893 175.492599 175.026306 174.648895 173.984100 173.380600 172.790894 172.190903 171.452103 170.940399 169.916000 169.340103 168.562805 167.843399 167.136597 166.619095 166.095596 165.670593 165.283600 164.932999 164.831604 164.627594 164.171005 163.560898 162.957108 162.207397 161.754593 160.885803 159.995300 159.200806 158.697601 158.062805 157.680206 157.217499 156.533401 155.801804 155.170807 154.179092 153.846893 153.359406
131.810593 132.085403 131.729904 131.389206 131.275406 130.987106 130.981201 131.215302 130.721893 130.807693 131.118195 131.409607 130.862396 130.722198 130.421204 130.073502 129.787994 129.507202 129.384003 129.275696 129.587906 130.199203 130.394806 130.954498 131.607193 132.089005 132.301895 132.193100 133.301102 134.530899 135.293304 135.692795 136.137207 135.863800 135.816803 136.121094 136.141800 135.620102 135.140198 135.189301 135.762604 136.235107 136.582993 137.161407 137.746704 138.550903 138.736801 138.676102 137.885498 137.955307 138.644897 138.766495 138.695297 138.907700 139.186203 139.718399 140.627304 140.957397 140.948807 141.361801 142.023499 142.849792 143.614395 144.284393 145.053604 145.365402 146.127808 147.300903 148.168594 149.581406 150.262497 150.945007 151.409805 152.065094 152.344803 153.182297 154.402893 155.004898 156.276001 157.365707 158.012695 158.787598 159.763199 160.566299 160.998093 161.463898 161.784195 161.914597 162.008102 162.152802 162.510498 162.851196 163.039505 163.360596 163.627502 164.162598 164.891403 165.361404 165.732803 166.164703 166.319397 166.462296 166.716507 167.051300 167.138596 167.394806 166.903793 166.969498 167.438004 167.994598 168.338394 168.709396 169.162506 169.785706 170.427002 170.585999 171.211197 171.329803 171.480499 171.445801 171.542404 171.709503 171.965302 172.371902 172.696594 173.103607 172.687500 172.922302 173.172607 172.759293 172.544205 172.222702 172.016998 172.410797 172.683105 172.861206 172.999695 172.950806 172.750793 172.606506 172.526901 172.703903 172.878403 173.213196 173.310303 173.535400 173.816696 173.911194 174.215195 173.531799 173.116898 172.365005 172.306305 171.992294 171.670898 171.460800 171.430496 171.469498 171.709000 171.714996 172.398499 172.722000 172.925201 172.943298 173.339798 173.345093 173.506393 173.850601 173.988998 174.157104 174.165497 174.060898 173.781403 173.555206 173.336304 173.135101 172.953400 172.863297 173.099701 173.131607 173.473099 174.067307 174.487701 175.005798 175.454102 175.997894 176.065598 175.927002 175.901093 176.356201 177.002808 177.743805 178.709305 178.891693 180.275299 182.028702 182.855499 183.152496 183.247894 183.861603 184.742706 185.458801 186.213898 186.459793 186.060699 186.279800 186.796997 186.801697 186.659500 186.495804 185.724701 185.002502 184.422806 184.237503 184.294296 184.090698 183.393906 183.581207 184.022598 184.056107 183.906998 183.924500 183.827698 183.862106 184.213104 184.274704 184.369293 184.270905 184.073700 183.749603 183.336197 182.758606 182.069702 181.436096 180.917801 180.367203 179.688293 179.187698 178.815796 178.408600 178.239105 177.855194 177.257904 176.825104 176.484695 176.045303 175.618103 175.312897 174.634506 174.109894 173.500305 172.732895 172.021103 171.198502 170.612701 169.867996 168.864899 168.033798 167.304398 166.746002 166.475693 166.064804 165.552505 165.292999 165.043396 164.784500 164.331100 163.904007 163.451797 162.791702 162.336304 161.676407 160.659805 159.932404 159.181503 158.656097 158.043106 157.456802 157.028503 156.605606 155.409607 154.615494 154.340805 154.102005
133.111603 132.877502 132.639893 132.177795 132.189102 132.501602 132.517197 131.936203 131.668594 131.704498 131.848602 131.828003 131.597305 131.512497 131.517502 131.115005 130.203201 130.207596 129.939697 130.610596 130.766693 131.267197 131.147095 131.391296 132.714996 133.341202 133.375107 133.579300 134.328293 135.177505 135.727295 136.436798 137.001694 137.565994 138.095093 137.846207 136.944199 136.753494 136.203094 136.411606 136.496399 136.717194 137.160202 137.999603 138.794907 139.437607 139.642700 139.406296 139.000000 138.613403 139.011002 139.505798 139.535995 139.782501 140.802597 140.882599 141.370895 141.506699 142.412201 143.037704 143.525696 144.582794 144.897903 145.057495 146.143799 146.675903 147.035507 147.632004 148.884796 149.893295 151.065308 151.950195 152.488800 152.643707 153.121506 153.425201 154.798706 155.314102 156.470596 157.374298 158.957397 159.789398 160.281693 161.095200 161.429398 162.122101 162.172302 162.341095 162.470093 162.806503 163.192001 163.420303 163.502594 164.047501 164.662903 165.091202 165.272400 165.799698 166.168106 166.362701 166.628098 166.901703 167.103699 167.413696 167.482895 167.586105 167.600494 167.686295 167.975403 168.310593 168.708298 169.209396 169.895203 170.603195 170.837494 171.413895 171.634094 171.816696 171.921494 171.921600 171.975204 172.021393 172.339005 172.716202 173.085999 173.468307 173.213394 173.290100 173.400406 173.294296 173.178101 172.982803 172.895096 173.088104 173.486603 173.640900 173.547394 173.593903 173.511795 173.206299 172.940094 173.251099 173.620102 173.723297 174.106003 174.248993 174.286407 174.437607 174.455200 174.226196 173.729706 173.028107 172.405396 172.143005 171.968597 171.754501 171.735596 171.997803 172.083496 172.604706 172.689194 172.927002 173.013596 173.279694 173.606094 173.938797 173.946899 174.052505 174.135406 174.310593 174.386002 174.243195 173.941498 173.790604 173.686905 173.506699 173.348801 173.241699 173.231293 173.504303 174.138901 174.387695 175.109406 175.490906 175.998703 176.278900 176.291199 176.433105 176.180695 176.652893 177.286194 178.074493 179.128296 180.380005 181.827393 182.548706 182.722794 183.208206 183.895996 183.858704 184.471603 184.927094 185.381699 186.533798 187.149506 187.353699 187.322998 187.369797 187.207596 186.880402 186.136398 185.527496 185.273804 184.938400 184.677597 184.331299 184.215393 184.197205 184.156799 184.186203 184.422104 184.430893 184.246902 184.325500 184.544006 184.628693 184.652405 184.456299 184.231293 184.003403 183.630096 183.117706 182.573898 181.897293 181.446793 180.839905 180.376297 179.937805 179.404495 178.953506 178.616898 178.114304 177.566498 177.213196 176.916107 176.620300 176.308197 175.869598 175.468002 175.079193 174.147903 173.517197 172.615097 171.685394 171.046600 170.175705 169.134003 168.344299 167.489502 166.843903 166.794296 166.413895 165.733307 165.226593 164.982300 164.753906 164.410507 164.032196 163.784302 163.324203 162.791000 162.106201 161.345505 160.654007 159.760803 159.066605 158.528107 158.150604 157.751404 156.968903 155.667801 155.409500 155.395004 155.033203
133.730301 133.743103 133.321701 133.031799 133.179504 133.269608 133.513000 133.292404 133.033401 132.845703 132.841797 133.056595 132.500198 132.330307 132.213501 131.697800 131.250504 130.924698 130.632797 131.097198 131.866699 132.283005 132.637802 133.003494 132.988007 134.041000 134.568497 134.539993 134.872101 135.371399 136.053894 136.812302 137.895294 138.589798 139.477600 139.236496 138.690506 138.358200 137.534103 137.535797 137.469803 137.621399 138.157898 138.350998 139.430893 140.348297 140.590195 140.217606 139.764404 139.509598 139.613602 139.991394 140.490601 140.921097 141.554596 141.690598 142.059998 142.496796 142.925293 143.709900 144.556793 145.109406 145.826508 146.232895 146.894394 147.395401 148.124893 148.624603 149.877396 150.565201 152.233704 152.623306 152.799103 153.533096 153.864304 154.293106 155.091507 155.845093 157.080093 157.932907 159.098495 160.346100 160.511002 161.171097 161.837204 162.308899 162.685303 162.843704 162.941406 163.243103 163.603806 164.029099 164.196701 164.639496 165.207199 165.585403 165.701202 165.887405 166.314102 166.593307 166.885300 167.114395 167.260803 167.464401 167.700394 167.927704 168.057098 168.207001 168.618393 168.781799 169.399002 169.766006 170.497299 170.980896 171.479904 171.722794 172.043396 172.109299 172.322296 172.335907 172.497894 172.522797 172.880997 173.096695 173.673492 173.648697 173.625397 173.676697 173.715897 173.651993 173.437103 173.647003 173.495804 173.667603 174.155304 174.161301 174.172501 174.215302 173.961395 173.702499 173.542801 173.571396 173.793396 174.247192 174.516098 174.776505 174.765503 174.800903 174.892197 174.692093 174.244797 173.575104 173.067093 172.594604 172.296707 172.097504 172.197403 172.409103 172.852402 172.919006 173.291595 173.244003 173.332504 173.926804 174.373703 174.488693 174.298203 174.464294 174.453598 174.503403 174.527100 174.481705 174.258408 174.054504 173.882507 173.835999 173.669403 173.593307 173.529297 173.783096 174.224899 174.759598 175.204605 175.724503 176.200394 176.503494 176.631897 176.609497 176.679504 177.054001 178.166000 178.601105 179.846405 180.829102 182.542801 183.327698 183.940094 184.340607 184.263702 184.601395 184.977600 184.992905 185.271194 186.395996 187.548203 187.909195 187.957703 187.815399 187.616592 187.293396 186.732101 186.450302 186.258102 185.756607 185.441605 185.145203 184.832199 184.670197 184.355698 184.523300 184.498199 184.740799 184.735794 184.670898 184.710205 184.759399 184.765198 184.614594 184.429703 184.196701 183.883804 183.495697 182.974899 182.536606 181.824707 181.346603 180.942902 180.379593 179.951202 179.388596 179.078598 178.611893 177.962708 177.567001 177.414307 177.093994 176.827103 176.526596 176.242599 175.591095 174.886002 174.042999 172.854706 172.212006 171.708694 170.603699 169.541107 168.482895 167.792007 167.373703 167.274399 166.819504 166.042892 165.481705 165.294998 165.027695 164.653000 164.469498 164.123093 163.738602 163.159302 162.557999 161.915100 161.211594 160.287201 159.544296 159.160507 158.519897 158.194595 157.660599 156.505203 156.224792 156.085205 155.803207
134.612701 134.455795 134.229294 134.092300 134.239899 134.133698 134.129807 134.698593 134.873398 135.033798 134.854996 134.485794 134.445297 133.519501 132.624298 132.186401 131.739395 131.585495 131.623505 131.891998 132.326096 132.720596 133.344498 134.363495 134.474503 134.869797 135.203201 135.264999 135.507706 135.710800 136.347702 137.403000 138.172501 138.943405 140.237396 140.746399 139.886505 139.650101 139.368103 139.005997 138.869400 138.727600 139.186798 140.288406 140.450607 141.156799 141.095993 141.148300 140.424698 140.413300 140.606400 140.624603 140.982193 141.675095 141.883606 142.454605 142.342300 142.950195 143.541107 144.519302 144.949402 145.524002 146.333603 146.755493 147.211304 148.032501 149.278107 150.326096 150.806702 151.808304 153.002396 153.591797 153.893494 154.605896 154.788406 155.138596 155.735703 156.007294 157.027206 158.634293 159.267593 160.228104 160.723099 161.441696 161.975403 162.563400 162.713699 163.028900 163.318207 163.431396 164.085693 164.660995 164.809799 165.135498 165.555801 165.762695 165.964096 166.199097 166.477600 166.770996 167.041901 167.279800 167.300003 167.505402 167.943405 168.267593 168.481995 168.768799 169.014496 169.474594 169.651398 170.319595 170.563599 171.124405 171.636703 172.000595 172.268097 172.533203 172.985794 173.177505 172.961304 173.238693 173.394104 173.582001 173.847504 173.965698 174.013702 173.893799 174.042206 173.887894 173.790894 174.105698 174.186493 174.359604 174.505707 174.587006 174.534805 174.437897 174.393295 174.397202 174.035904 174.048996 174.462006 174.449295 174.794998 174.953598 175.072403 175.262695 175.322906 175.311996 175.030304 174.535706 173.875793 173.069702 172.793701 172.584000 172.879700 173.189697 173.202194 173.454102 173.606003 173.884293 174.281799 174.380600 174.862106 174.983597 174.875000 174.753006 174.779404 174.884506 174.781006 174.696899 174.628403 174.372894 174.187897 174.176895 174.081299 174.012604 173.858307 174.034500 174.416397 174.965698 175.363693 175.788193 176.083496 176.549896 176.882599 176.957901 176.879807 177.404694 178.926697 179.841599 180.059402 180.957397 182.927200 184.350403 185.465805 185.520203 185.395294 185.523407 185.690598 185.810593 185.307999 185.785400 187.352798 188.241394 188.459198 188.285599 188.077606 187.682098 187.216904 187.181396 187.023300 186.843903 186.245102 185.765198 185.294495 185.383896 184.959198 184.974396 184.947601 184.913406 184.715302 184.634094 184.930099 184.928604 184.877502 184.716904 184.598907 184.386002 184.099197 183.725403 183.503693 183.033997 182.324295 181.869507 181.376297 180.818207 180.419601 179.989807 179.426498 178.991501 178.483307 178.089096 177.738907 177.466293 177.242599 176.804596 176.610397 176.077606 175.457108 174.736298 173.418701 172.955795 172.271500 171.282593 169.865906 169.081100 168.334702 167.902405 167.559906 167.152100 166.609207 166.134995 165.835403 165.474503 165.205505 164.876205 164.623703 164.068802 163.280106 162.805496 162.179306 161.674896 160.919403 160.028397 159.427094 158.891998 158.453995 158.103500 157.604004 157.130600 156.845505 156.676300
135.542007 135.380600 135.419800 135.256699 135.202194 135.291107 135.385300 135.884094 136.230896 136.517502 136.720795 136.323196 136.106400 134.369095 134.206100 133.854202 132.910507 132.347794 132.653595 132.575806 132.906494 133.909393 134.712006 134.920395 134.785507 134.970398 135.143295 135.440399 135.601501 135.952393 136.537292 137.373795 138.952103 139.608994 140.826004 141.336899 141.371796 141.087708 141.064194 140.892899 140.389206 140.107300 140.356995 140.804001 141.675293 141.767105 141.578506 141.516907 141.244202 141.158600 141.160995 141.557007 141.608307 142.204407 142.492905 142.861206 142.942795 143.240097 144.017899 144.700607 145.375900 145.851501 146.756805 147.201599 148.227798 149.487503 150.674500 151.686600 152.340805 153.118500 153.701706 154.642502 154.832306 155.123001 155.675903 156.141098 156.098801 156.642700 157.966507 158.642807 159.734802 160.403397 160.897598 161.606003 162.490402 162.703995 163.128296 163.197296 163.566406 163.687195 164.402100 164.844299 165.351196 165.569702 165.774704 165.923492 166.226700 166.428604 166.632294 166.892303 167.155304 167.263397 167.315094 167.505600 167.983597 168.264999 168.682999 168.971405 169.319794 169.757401 170.177307 170.606903 170.903198 171.451294 171.934097 172.319794 172.826401 173.073303 173.317596 173.570099 173.611099 173.785995 173.733002 173.895493 174.078705 174.175995 174.319901 174.264404 174.114502 174.068497 174.138397 174.355698 174.413803 174.518494 174.704102 174.785095 174.803299 174.798004 174.858704 174.777100 174.558304 174.646194 174.781494 174.967407 175.120499 175.195694 175.419205 175.566605 175.728104 175.683807 175.421402 174.980698 174.472107 173.969604 173.515396 173.351105 173.420898 173.530396 174.102707 174.108994 174.359695 174.580002 175.093597 175.402496 175.431702 175.372696 175.265503 175.248505 175.138397 175.196396 175.034302 174.837006 174.722305 174.580002 174.407806 174.329300 174.327393 174.377106 174.204803 174.237198 174.544403 174.819901 175.290207 175.603302 176.235107 176.918198 177.229294 177.451706 177.201706 178.133804 179.680298 180.562195 181.457703 181.822693 184.262894 185.563599 186.295105 186.584396 186.419495 186.294601 186.209793 186.410507 185.893097 186.900299 187.805695 188.659393 188.669403 188.727905 188.368698 188.062500 187.759201 187.570999 187.851303 187.508301 187.013397 186.627808 186.031204 185.886398 185.630096 185.511002 185.244598 184.951004 184.745895 184.779404 184.906799 184.953995 184.890701 184.814194 184.776093 184.462097 184.232803 183.969604 183.704498 183.380203 182.841095 182.310898 181.841003 181.296799 180.827606 180.391205 179.858994 179.370300 179.007202 178.593903 178.203598 177.834900 177.555298 177.105392 176.930298 176.455704 175.772995 175.138504 174.283798 173.660797 172.915604 172.026703 170.626099 169.388397 168.951508 168.516602 168.025497 167.740997 167.129196 166.666107 166.495697 166.047195 166.006699 165.660294 165.016403 164.699402 163.951294 163.130905 162.589996 161.903595 161.007401 160.384399 159.660507 159.163605 158.897202 158.447906 158.087006 157.871902 157.854294 157.678406
136.319504 136.371094 136.191696 136.179199 136.141800 136.226303 136.389099 137.433304 138.117599 138.382599 137.800095 138.305405 138.347504 138.045395 136.972198 135.404602 134.103302 133.068298 133.712402 134.162903 134.562607 135.012497 135.158203 135.204605 134.470306 134.423004 134.653595 135.150497 135.424500 135.870499 136.647293 137.746307 139.197601 140.264099 141.206207 141.854202 142.131607 142.266998 142.534698 141.934494 141.627106 141.587708 141.544601 141.824203 142.068207 142.249496 142.146500 142.075394 142.067795 141.717499 141.785095 141.593597 142.242401 143.055893 143.217896 143.192307 143.507004 144.068802 144.049301 144.626297 145.224899 146.032501 146.850998 148.186798 149.493805 151.203506 152.098099 153.180496 153.644897 154.393799 155.180206 155.326202 156.047394 156.240707 156.195908 156.459702 156.871002 157.282700 158.395798 159.093597 160.416595 160.858704 161.130997 162.046906 162.236206 162.762100 163.094498 163.360001 163.581299 164.183197 164.526001 164.977203 165.484802 165.766006 165.882996 166.102798 166.403900 166.661499 166.764603 166.942902 167.075607 167.182205 167.359100 167.596893 167.993698 168.223694 168.680298 168.965607 169.430496 169.902695 170.608994 171.128693 171.403503 171.626297 172.085403 172.817093 173.394806 173.902603 174.207108 174.229401 174.100494 174.081497 173.914505 173.991302 174.300507 174.441101 174.493393 174.467300 174.357697 174.304092 174.364197 174.426193 174.545395 174.534698 174.705994 174.794800 174.867706 174.959396 175.077896 175.070297 174.940506 174.901703 175.026093 175.219101 175.468002 175.800003 175.822800 175.964294 175.966400 175.836304 175.809097 175.591705 175.286896 174.848206 174.257095 174.223999 174.037201 174.139999 174.781601 174.905594 174.874893 175.311493 175.477203 175.881897 175.985306 175.959793 175.828903 175.647202 175.569107 175.430496 175.258301 174.984100 174.784302 174.625397 174.589798 174.592407 174.801102 174.735107 174.589401 174.638901 174.763000 174.940704 174.967499 175.595001 176.128098 176.967300 177.395905 177.614594 177.703094 178.761398 180.197601 181.811096 183.996506 184.543304 185.874298 186.701797 186.751205 186.996796 187.539505 187.232895 187.284302 187.188293 187.396606 187.202896 188.629105 188.955307 189.132401 189.068802 188.798904 188.393906 188.293503 188.350006 188.367493 188.254898 187.828705 187.394394 187.171799 186.632797 186.054703 185.663895 185.360596 185.014694 184.825500 184.798096 185.020493 184.931396 184.980896 184.781998 184.796997 184.548294 184.363800 184.179901 183.986496 183.724106 183.435501 182.972198 182.318298 181.710495 181.155594 180.646698 180.265503 179.907394 179.580902 179.043106 178.639297 178.179398 177.632202 177.376205 177.018707 176.532394 176.003799 175.375198 174.770706 174.201096 173.362793 172.314697 171.017502 170.191803 169.544403 169.141907 168.841705 168.304703 167.970001 167.397202 167.243896 166.857101 166.859894 166.520905 165.784103 165.285995 164.774307 163.987000 162.948700 161.787506 161.123993 160.362503 159.867096 159.334106 158.956497 158.653397 158.376099 158.311707 158.932907 159.143402
137.029907 137.049103 137.400803 137.480499 137.160904 137.151398 137.840897 138.408997 138.876907 139.780304 139.442001 139.837402 140.109100 139.660706 139.161804 137.363205 135.608704 134.261093 134.578506 135.598801 135.974197 136.104706 135.904404 135.579697 134.617401 134.263702 134.766296 134.916306 135.349396 136.038101 136.744705 138.207901 140.319595 141.264694 141.892700 142.774506 143.274200 143.842407 143.945404 143.738297 143.340698 142.609100 142.269196 142.228394 143.088593 142.951202 142.680298 142.645493 142.421494 142.177902 142.078003 142.302399 143.361801 143.488998 143.617401 143.899506 144.377899 144.419296 144.458801 144.825607 145.345505 146.313095 147.245102 148.678299 150.648193 152.186096 152.939194 153.857193 155.498596 155.870697 156.316299 156.366699 156.791901 156.974396 157.014206 157.248703 157.791397 157.944199 159.010605 159.835007 161.051300 161.804092 161.839600 162.114502 162.676804 163.037506 163.265198 163.561905 163.940796 164.417404 164.749496 165.211395 165.818100 165.973602 166.080307 166.337906 166.782394 166.879898 167.092697 167.192001 167.188599 167.370499 167.533493 167.774704 168.033203 168.456497 168.800095 169.199203 169.766907 170.386002 170.727005 171.348206 171.733704 172.129807 172.386505 173.179199 173.682907 174.393402 174.681503 174.677094 174.460098 174.358307 174.300095 174.377594 174.627396 174.634399 174.666595 174.714798 174.629898 174.593597 174.647705 174.714798 174.723404 174.740997 174.791306 174.936905 174.969406 175.118500 175.336807 175.435394 175.390106 175.345901 175.446793 175.756897 175.817398 176.136597 176.231506 176.257996 176.298096 176.192795 176.080597 175.851395 175.726303 175.479401 175.050705 174.946899 174.883499 174.895493 175.426300 175.439697 175.332504 175.513901 176.092194 176.276703 176.278397 176.272797 176.130096 176.077698 175.919006 175.680893 175.474503 175.212296 175.016693 174.934402 174.846405 174.908905 175.044601 175.047394 174.989304 175.028107 174.945496 175.134995 175.097900 175.398605 176.395004 176.637299 177.466293 178.146301 178.076599 179.244598 180.156403 181.979004 184.511703 186.145401 186.938995 187.411896 186.998199 187.576202 188.065002 188.378296 188.052597 188.078400 188.352707 188.618607 189.147202 189.451904 189.422699 189.247192 189.029099 188.772903 188.543594 188.472900 188.669800 188.607605 188.306702 188.062805 187.703796 187.225998 186.628693 186.080307 185.556198 185.267899 184.950699 184.856003 184.862900 184.912903 184.979904 184.979904 184.698807 184.574493 184.386398 184.152298 184.032196 183.840103 183.720001 183.301193 182.711197 182.054901 181.492401 180.992096 180.626907 180.301605 179.858398 179.427994 178.822006 178.279602 177.808502 177.452301 177.235107 176.808197 176.216995 175.612701 175.253601 174.574203 173.841003 172.793503 171.611694 170.907593 170.301895 169.737503 169.487503 168.975998 168.618103 168.106201 167.851898 167.746506 167.429901 167.091705 166.436996 165.828598 165.217300 164.494507 163.049194 161.937103 161.270401 160.686996 160.081497 159.782806 159.384506 159.116196 158.888107 159.034897 159.313004 159.714493
138.047699 137.893997 138.667099 138.473907 138.516800 138.423203 138.338699 139.693802 140.559494 141.470093 141.153198 141.238403 141.283203 141.136902 140.260406 139.113205 137.280807 135.994507 136.289597 136.616104 137.017197 136.788406 136.649704 136.038895 135.205307 134.877701 134.969894 135.027206 135.530197 136.600601 137.999405 139.342499 141.189499 142.121704 143.092407 143.599792 144.882294 145.277893 145.221405 144.593597 143.863205 143.780197 143.290207 143.479706 143.542603 143.546204 143.455002 143.090302 143.103302 142.849197 142.948196 143.392700 143.759506 144.042297 144.285202 144.459106 144.636002 144.623703 144.878998 145.169601 145.708801 146.565094 147.786697 149.302994 150.560196 152.062500 153.300507 154.137802 155.861893 156.778397 157.245697 157.371201 157.814194 157.822800 158.135300 158.362503 158.553299 158.975494 159.391602 160.302094 161.334702 161.760498 162.110703 162.365494 162.914902 163.375900 163.451706 163.786407 164.215302 164.744797 165.202393 165.683197 165.886505 166.319702 166.478699 166.548996 166.921600 167.049194 167.369293 167.470993 167.593201 167.680206 167.801697 167.890396 168.338501 168.625504 169.055298 169.698395 170.182205 170.774597 171.022293 171.482407 172.166702 172.521301 172.832199 173.425201 174.068405 174.507706 174.902206 174.981506 174.785995 174.728195 174.758606 174.793106 175.020996 174.999802 175.017197 174.973206 174.999100 174.923294 175.013794 175.073898 175.086502 175.107407 175.099899 175.205704 175.225800 175.293594 175.385696 175.623001 175.942993 175.961105 176.046600 176.382401 176.341003 176.489105 176.573593 176.645996 176.590195 176.595200 176.501907 176.374496 176.162704 175.898499 175.801407 175.728394 175.493607 175.644501 175.709198 175.828598 175.794006 176.101196 176.281403 176.412598 176.528198 176.515106 176.403503 176.285294 176.195099 175.944397 175.799301 175.570694 175.354095 175.300293 175.222305 175.110107 175.239899 175.330597 175.349594 175.534393 175.546600 175.781006 175.610504 176.107407 176.227295 176.824997 178.047699 178.416901 178.397003 179.084503 181.687302 183.460007 183.950302 185.442001 186.375198 187.212799 188.073593 187.929306 188.690506 188.884995 188.666397 189.231705 189.061096 189.152695 189.460007 189.574799 189.567001 189.447693 189.139404 188.852905 188.896896 188.963104 188.806793 188.837494 188.603607 188.250000 187.965897 187.448502 186.933899 186.516693 186.057297 185.628799 185.303497 185.182602 185.416794 185.426895 185.232697 185.075302 184.972107 184.811096 184.337601 184.180801 184.098999 183.806595 183.630402 183.351303 182.872101 182.324203 181.762405 181.275604 180.939407 180.498398 180.058105 179.468201 178.912201 178.440994 178.005203 177.675400 177.336700 176.920807 176.449905 175.885300 175.447403 174.885101 174.268707 173.434998 172.455505 171.743301 171.158096 170.436005 169.932999 169.384399 169.067902 168.796997 168.445999 168.101395 167.864594 167.477097 167.135300 166.568298 165.571594 164.611496 163.934204 162.661102 161.501007 160.877808 160.595398 160.516006 160.080002 159.717499 159.397705 159.402405 159.619202 160.192398
138.988800 139.287201 139.507004 139.788803 139.559402 139.608093 139.357300 139.795807 141.464996 142.139404 142.273895 142.238098 142.110794 141.847504 141.612000 140.030899 137.859207 137.844193 137.806900 137.690796 137.908798 137.779694 137.054199 136.338501 135.794693 135.503906 135.461502 135.741699 135.964005 136.987701 138.989502 140.483398 141.986801 142.736801 143.601501 144.447098 145.573502 145.901306 146.010696 145.498001 145.009293 144.431595 144.387604 144.219604 144.270996 144.147202 144.002502 143.731003 143.550201 143.477997 143.690994 143.996506 144.284897 144.574600 145.063004 145.421204 145.196503 145.434906 145.558395 145.854004 146.307602 146.864700 148.267395 149.452194 150.561996 151.899200 153.371399 154.562607 156.130493 157.223694 157.790207 158.157806 158.373001 158.560501 158.877701 159.392303 159.425400 159.632507 160.013397 160.774307 161.275803 161.957108 162.150497 162.695206 163.389603 163.702805 163.816498 164.038193 164.426895 164.945496 165.374100 165.965607 166.165207 166.734207 166.778107 167.275497 167.294403 167.751694 167.930801 167.999405 168.184296 168.291000 168.358795 168.552704 168.755997 168.995193 169.245499 169.735306 170.384796 171.019302 171.272995 171.997101 172.643906 172.895798 173.169601 173.522293 174.290497 174.760193 175.100601 175.007706 174.962006 175.031906 175.324799 175.372894 175.405396 175.467102 175.279099 175.319504 175.522598 175.503204 175.448303 175.413101 175.464798 175.417404 175.449600 175.459198 175.486603 175.689804 175.731400 175.884598 176.312805 176.397705 176.614304 176.609497 176.858002 176.987503 176.938293 176.872696 176.868393 177.002304 176.836502 176.767700 176.497604 176.418106 176.407104 176.373505 176.246399 176.167694 176.193802 176.202103 176.299103 176.340500 176.658295 176.718307 176.719894 176.658203 176.526993 176.512299 176.408493 176.214996 175.989197 175.802994 175.784897 175.734604 175.764893 175.772293 175.792496 175.976700 176.175995 176.208206 176.303894 176.840195 176.754593 177.079697 177.659195 178.049896 178.773499 179.330399 180.053894 180.695801 181.897400 183.203400 184.178101 185.299301 186.561203 187.277893 187.996597 188.570297 189.178299 189.353699 189.385101 189.395004 189.610504 189.803802 189.715607 189.608307 189.551697 189.539902 189.389008 189.309799 189.157700 189.121704 188.961105 188.680405 188.677094 188.465897 188.202499 187.808701 187.341202 186.910095 186.421005 186.035904 185.574097 185.414902 185.623993 185.537598 185.539307 185.271500 185.237503 184.953903 184.605804 184.154205 183.945099 183.745605 183.499207 183.282394 183.019104 182.540100 181.935898 181.537704 181.175095 180.692596 180.136002 179.606903 179.024200 178.534805 178.230499 177.824997 177.481400 176.994293 176.571793 176.086899 175.632202 175.213303 174.567902 173.954498 173.243607 172.571304 171.698807 171.024902 170.606598 170.099503 169.669800 169.266403 168.905807 168.590897 168.316299 167.750595 167.617599 167.228104 166.024200 165.280396 164.221603 163.623306 161.973007 161.277695 161.195099 161.085907 160.505402 160.598007 160.111496 159.977600 160.298203 160.611893
140.811600 140.828705 140.924896 140.969894 140.728699 140.362701 140.711502 140.747192 141.656097 142.354095 142.560196 142.691696 142.608795 142.463501 142.089493 141.594696 140.178406 139.567902 138.672195 138.611099 138.550705 138.168304 137.075394 136.536697 136.034195 135.863403 136.634399 136.685196 137.251907 137.975006 138.993301 140.244598 142.148697 143.106705 143.901505 144.701294 145.470001 146.292404 146.698196 146.202606 145.348297 145.200897 145.243103 144.974304 144.644806 144.710800 144.639404 144.498001 144.295700 144.226105 144.199493 144.404099 144.694702 145.058395 145.922806 145.900497 145.975998 146.258499 146.621506 146.634003 146.783493 147.258301 148.850296 149.871399 150.746994 151.741592 153.138000 154.437393 155.648407 157.233398 158.067703 158.768295 158.908203 158.960693 159.784805 160.088593 159.957596 160.346603 160.367096 160.719406 161.298203 161.741302 162.057007 162.782700 163.266693 164.014404 163.933701 164.369995 164.903198 165.185104 165.690094 166.298798 166.673706 166.944000 167.482407 167.843597 168.233505 168.328400 168.464905 168.578995 168.830704 169.140305 169.030502 169.305405 169.077301 169.279694 169.401505 169.760803 170.503799 171.059402 171.794403 172.532593 173.077606 173.381104 173.639496 174.035797 174.560898 174.914200 175.217606 175.240204 175.305801 175.411804 175.545502 175.677094 175.751907 175.795105 175.770996 175.866394 176.013306 176.179703 175.873901 175.853607 175.803207 175.911606 175.955093 175.900497 175.928802 176.068893 176.253006 176.429993 176.635605 176.822601 176.912704 177.038406 177.221893 177.247894 177.223404 177.256195 177.250397 177.153198 177.150101 177.012802 176.897400 176.903198 176.863602 176.803101 176.756897 176.732407 176.800095 176.773605 176.696304 176.681396 176.967499 176.970703 176.815399 176.818405 176.626694 176.678497 176.628494 176.525604 176.359695 176.110901 176.062607 176.097107 176.545593 176.760498 176.701401 176.927002 176.865402 176.990097 177.508408 178.366592 178.227402 178.627304 180.289597 180.187897 181.173996 181.779907 182.279999 182.957596 182.955795 183.670105 184.222000 184.941406 186.532303 187.448196 187.674301 188.306503 188.913696 189.588501 189.485504 189.609497 189.894104 189.999298 189.814697 189.691406 189.510193 189.591705 189.680603 189.639603 189.541702 189.147705 189.039307 188.821594 188.907806 188.712997 188.283997 187.965302 187.669601 187.294601 186.755005 186.213501 186.044495 185.841202 185.716599 185.643204 185.548599 185.422501 185.402802 185.149002 184.830902 184.434402 183.913101 183.508301 183.207596 182.990799 182.907394 182.612793 182.176895 181.690796 181.246399 180.774597 180.192795 179.746201 179.140106 178.730804 178.417404 178.130203 177.655807 177.177505 176.629593 176.225403 175.912796 175.510605 174.795502 174.312607 173.617996 173.008194 172.400101 171.867996 171.367706 170.616806 170.281494 169.785797 169.215500 168.694504 168.271698 168.008194 167.867599 167.315201 166.607101 165.646103 165.164902 163.659698 163.025497 162.145294 161.627594 161.388397 161.103195 161.112900 160.992599 161.060394 161.165894 161.079193
